-25.6800	-10.7330	-53.1963	0.1436	-1.8088	1.3343
-25.6786	-10.7307	-53.1865	0.1390	-1.8534	1.3080
-25.6776	-10.7326	-53.1788	0.1375	-1.8952	1.3032
-25.6764	-10.7327	-53.1701	0.1342	-1.9393	1.2864
-25.6747	-10.7314	-53.1592	0.1288	-1.9919	1.2562
-25.6737	-10.7325	-53.1514	0.1260	-2.0340	1.2422
-25.6725	-10.7310	-53.1432	0.1211	-2.0720	1.2127
-25.6715	-10.7301	-53.1358	0.1168	-2.1072	1.1869
-25.6706	-10.7311	-53.1294	0.1141	-2.1426	1.1723
-25.6695	-10.7302	-53.1214	0.1089	-2.1803	1.1407
-25.6682	-10.7298	-53.1120	0.1032	-2.2259	1.1058
-25.6672	-10.7300	-53.1056	0.0991	-2.2586	1.0819
-25.6660	-10.7292	-53.0968	0.0929	-2.2981	1.0425
-25.6654	-10.7294	-53.0924	0.0899	-2.3202	1.0248
-25.6641	-10.7276	-53.0834	0.0825	-2.3554	0.9762
-25.6636	-10.7270	-53.0793	0.0793	-2.3713	0.9549
-25.5687	-11.5129	-52.2741	-0.1296	0.6819	-1.0624
-25.5681	-11.5337	-52.2662	-0.1248	0.6840	-1.0276
-25.5925	-11.5044	-52.4512	-0.1385	1.0163	-1.1819
-25.6046	-11.5572	-52.5325	-0.1162	1.2250	-1.0509
-25.6182	-11.5512	-52.6349	-0.1007	1.5211	-0.9848
-25.6232	-11.5273	-52.6756	-0.0987	1.6901	-0.9968
-25.6248	-11.5416	-52.6844	-0.0901	1.6918	-0.9333
-25.6265	-11.5397	-52.6976	-0.0862	1.7380	-0.9120
-25.6279	-11.5612	-52.7045	-0.0759	1.7118	-0.8320
-25.6390	-11.5551	-52.7884	-0.0406	1.9556	-0.6109
-25.6409	-11.5822	-52.7989	-0.0293	1.8872	-0.5171
-25.6421	-11.5805	-52.8081	-0.0251	1.9105	-0.4895
-25.6437	-11.5733	-52.8207	-0.0198	1.9591	-0.4583
-25.6446	-11.5678	-52.8281	-0.0167	1.9926	-0.4405
-25.6459	-11.5668	-52.8377	-0.0115	2.0129	-0.4056
-25.6479	-11.5656	-52.8532	-0.0028	2.0413	-0.3458
-25.6489	-11.5629	-52.8618	0.0019	2.0639	-0.3144
-25.6502	-11.5632	-52.8708	0.0073	2.0737	-0.2761
-25.6514	-11.5643	-52.8797	0.0127	2.0785	-0.2372
-25.6523	-11.5650	-52.8866	0.0169	2.0817	-0.2070
-25.6558	-11.5927	-52.9080	0.0289	1.9813	-0.1022
-25.6567	-11.5880	-52.9154	0.0331	2.0024	-0.0743
-25.6579	-11.5902	-52.9248	0.0381	1.9953	-0.0364
-25.6592	-11.5883	-52.9342	0.0434	2.0035	0.0011
-25.6599	-11.5922	-52.9393	0.0457	1.9874	0.0211
-25.6621	-11.5796	-52.9576	0.0571	2.0335	0.0980
-25.6635	-11.5820	-52.9670	0.0619	2.0188	0.1355
-25.6643	-11.5816	-52.9730	0.0652	2.0169	0.1602
-25.6656	-11.5786	-52.9831	0.0711	2.0211	0.2032
-25.6665	-11.5747	-52.9909	0.0760	2.0297	0.2380
-25.6696	-11.5753	-53.0145	0.0880	1.9992	0.3315
-25.6711	-11.5848	-53.0235	0.0898	1.9505	0.3525
-25.6734	-11.5864	-53.0409	0.0972	1.9183	0.4127
-25.6747	-11.5884	-53.0500	0.1006	1.8961	0.4409
-25.6760	-11.5880	-53.0598	0.1048	1.8800	0.4745
-25.6771	-11.5877	-53.0686	0.1084	1.8643	0.5038
-25.6783	-11.5872	-53.0774	0.1119	1.8484	0.5325
-25.6793	-11.5892	-53.0846	0.1139	1.8275	0.5507
-25.6808	-11.5910	-53.0955	0.1172	1.7993	0.5793
-25.6819	-11.5914	-53.1037	0.1198	1.7804	0.6019
-25.6831	-11.5903	-53.1126	0.1231	1.7633	0.6289
-25.6846	-11.5915	-53.1238	0.1261	1.7347	0.6557
-25.6860	-11.5942	-53.1332	0.1279	1.7058	0.6732
-25.6872	-11.5949	-53.1419	0.1300	1.6833	0.6925
-25.6883	-11.5954	-53.1508	0.1320	1.6608	0.7114
-25.6899	-11.5943	-53.1630	0.1354	1.6334	0.7407
-25.6911	-11.5945	-53.1720	0.1373	1.6107	0.7588
-25.6956	-11.6175	-53.2017	0.1349	1.4967	0.7588
-25.6970	-11.6116	-53.2127	0.1387	1.4802	0.7898
-25.6977	-11.6048	-53.2188	0.1421	1.4759	0.8153
-25.6996	-11.6086	-53.2322	0.1427	1.4375	0.8256
-25.7025	-11.5928	-53.2577	0.1512	1.3938	0.8962
-25.7028	-11.5830	-53.2616	0.1551	1.3944	0.9253
-25.7183	-11.6111	-53.3723	0.1502	1.1120	0.9339
-25.7135	-11.5325	-53.3495	0.1760	1.1871	1.1129
-25.7221	-11.5506	-53.4101	0.1669	1.0368	1.0701
-25.7265	-11.5527	-53.4433	0.1640	0.9648	1.0604
-25.7276	-11.5459	-53.4532	0.1651	0.9426	1.0717
-25.7293	-11.5416	-53.4660	0.1651	0.9152	1.0764
-25.7619	-11.5905	-53.7007	0.1342	0.5883	0.8998
-25.7643	-11.5843	-53.7199	0.1333	0.5650	0.8969
-25.8314	-11.6567	-54.2063	0.0932	0.2874	0.6444
-25.8450	-11.6512	-54.3086	0.0881	0.2504	0.6125
-26.0860	-11.6054	-56.1056	0.0417	0.0491	0.3016
-26.0922	-11.5585	-56.1590	0.0411	0.0434	0.2981
-26.2085	-11.4851	-57.0361	0.0325	0.0229	0.2371
-25.6772	-10.7362	-53.2196	0.1486	-1.7056	1.3781
-25.6760	-10.7354	-53.2107	0.1459	-1.7477	1.3648
-25.6747	-10.7342	-53.2010	0.1426	-1.7932	1.3469
-25.6734	-10.7343	-53.1930	0.1402	-1.8333	1.3359
-25.6722	-10.7328	-53.1840	0.1362	-1.8754	1.3133
-25.6711	-10.7341	-53.1755	0.1340	-1.9209	1.3041
-25.6699	-10.7321	-53.1671	0.1295	-1.9589	1.2769
-25.6686	-10.7315	-53.1570	0.1249	-2.0091	1.2504
-25.6674	-10.7321	-53.1485	0.1214	-2.0541	1.2316
-25.6665	-10.7316	-53.1418	0.1179	-2.0869	1.2106
-25.6652	-10.7308	-53.1324	0.1125	-2.1326	1.1781
-25.6642	-10.7314	-53.1253	0.1090	-2.1708	1.1585
-25.6633	-10.7314	-53.1188	0.1053	-2.2037	1.1357
-25.6622	-10.7306	-53.1108	0.1000	-2.2415	1.1025
-25.6610	-10.7297	-53.1020	0.0939	-2.2815	1.0634
-25.6599	-10.7293	-53.0940	0.0884	-2.3187	1.0284
-25.6590	-10.7285	-53.0872	0.0832	-2.3476	0.9948
-25.6580	-10.7275	-53.0797	0.0773	-2.3781	0.9556
-25.5951	-11.5308	-52.4981	-0.1255	1.1379	-1.1251
-25.5968	-11.5487	-52.5080	-0.1188	1.1616	-1.0789
-25.5980	-11.5534	-52.5160	-0.1166	1.1811	-1.0654
-25.5994	-11.5622	-52.5257	-0.1128	1.2034	-1.0406
-25.6004	-11.5658	-52.5329	-0.1109	1.2202	-1.0289
-25.6173	-11.5358	-52.6660	-0.0962	1.6393	-0.9866
-25.6188	-11.5374	-52.6765	-0.0924	1.6706	-0.9630
-25.6215	-11.5375	-52.6972	-0.0854	1.7376	-0.9210
-25.6226	-11.5654	-52.7011	-0.0742	1.6893	-0.8291
-25.6369	-11.5710	-52.8093	-0.0259	1.9430	-0.5064
-25.6381	-11.5681	-52.8185	-0.0216	1.9709	-0.4790
-25.6391	-11.5749	-52.8253	-0.0170	1.9587	-0.4419
-25.6414	-11.5586	-52.8452	-0.0084	2.0548	-0.3927
-25.6424	-11.5561	-52.8537	-0.0037	2.0785	-0.3617
-25.6436	-11.5615	-52.8618	0.0015	2.0674	-0.3202
-25.6445	-11.5645	-52.8683	0.0055	2.0631	-0.2893
-25.6456	-11.5645	-52.8763	0.0102	2.0719	-0.2557
-25.6466	-11.5654	-52.8841	0.0148	2.0759	-0.2214
-25.6477	-11.5681	-52.8918	0.0194	2.0706	-0.1863
-25.6489	-11.5778	-52.8991	0.0235	2.0352	-0.1492
-25.6500	-11.5833	-52.9069	0.0278	2.0168	-0.1144
-25.6511	-11.5817	-52.9162	0.0329	2.0267	-0.0771
-25.6556	-11.5978	-52.9470	0.0480	1.9635	0.0467
-25.6566	-11.5844	-52.9571	0.0548	2.0134	0.0901
-25.6587	-11.5894	-52.9729	0.0622	1.9854	0.1504
-25.6629	-11.5847	-53.0057	0.0794	1.9744	0.2817
-25.6638	-11.5826	-53.0126	0.0833	1.9740	0.3107
-25.6686	-11.5876	-53.0489	0.0981	1.9017	0.4344
-25.6698	-11.5885	-53.0578	0.1015	1.8830	0.4629
-25.6710	-11.5883	-53.0665	0.1050	1.8676	0.4921
-25.6719	-11.5872	-53.0740	0.1082	1.8565	0.5181
-25.6731	-11.5877	-53.0831	0.1115	1.8368	0.5456
-25.6745	-11.5899	-53.0928	0.1142	1.8099	0.5704
-25.6758	-11.5909	-53.1023	0.1171	1.7864	0.5958
-25.6768	-11.5899	-53.1113	0.1202	1.7695	0.6228
-25.6780	-11.5919	-53.1202	0.1223	1.7437	0.6423
-25.6793	-11.5938	-53.1292	0.1242	1.7180	0.6611
-25.6806	-11.5950	-53.1394	0.1266	1.6910	0.6832
-25.6822	-11.5942	-53.1515	0.1299	1.6639	0.7130
-25.6830	-11.5938	-53.1574	0.1315	1.6504	0.7271
-25.6845	-11.5940	-53.1689	0.1341	1.6216	0.7512
-25.6916	-11.6321	-53.2173	0.1299	1.4405	0.7487
-25.6975	-11.6123	-53.2650	0.1422	1.3568	0.8555
-25.6991	-11.5680	-53.2853	0.1593	1.3483	0.9859
-25.7005	-11.5675	-53.2958	0.1599	1.3203	0.9953
-25.7238	-11.5554	-53.4762	0.1577	0.9021	1.0468
-25.8718	-11.6511	-54.5839	0.0745	0.1821	0.5341
-25.8738	-11.6263	-54.6025	0.0742	0.1721	0.5340
-25.6703	-10.7355	-53.2141	0.1436	-1.7375	1.3700
-25.6692	-10.7354	-53.2059	0.1415	-1.7769	1.3601
-25.6681	-10.7342	-53.1977	0.1384	-1.8157	1.3426
-25.6666	-10.7335	-53.1868	0.1345	-1.8692	1.3224
-25.6655	-10.7340	-53.1789	0.1321	-1.9101	1.3105
-25.6644	-10.7342	-53.1702	0.1289	-1.9545	1.2938
-25.6631	-10.7327	-53.1606	0.1241	-2.0002	1.2645
-25.6619	-10.7319	-53.1518	0.1198	-2.0432	1.2387
-25.6611	-10.7327	-53.1455	0.1173	-2.0782	1.2255
-25.6598	-10.7318	-53.1360	0.1121	-2.1242	1.1933
-25.6587	-10.7316	-53.1274	0.1074	-2.1676	1.1648
-25.6576	-10.7310	-53.1201	0.1030	-2.2031	1.1372
-25.6569	-10.7315	-53.1144	0.0999	-2.2336	1.1184
-25.6560	-10.7303	-53.1076	0.0951	-2.2633	1.0868
-25.6549	-10.7299	-53.0996	0.0898	-2.3009	1.0522
-25.6537	-10.7292	-53.0909	0.0836	-2.3403	1.0118
-25.6528	-10.7294	-53.0838	0.0787	-2.3751	0.9803
-25.6524	-10.7261	-53.0809	0.0750	-2.3727	0.9517
-25.5615	-11.5345	-52.2716	-0.1198	0.6900	-1.0279
-25.5796	-11.4644	-52.4215	-0.1447	0.9179	-1.2562
-25.5865	-11.5248	-52.4653	-0.1260	1.0521	-1.1351
-25.5930	-11.5382	-52.5132	-0.1194	1.1737	-1.1037
-25.5936	-11.5535	-52.5149	-0.1142	1.1754	-1.0644
-25.6097	-11.5343	-52.6419	-0.1013	1.5579	-1.0279
-25.6228	-11.5570	-52.7405	-0.0606	1.8157	-0.7579
-25.6244	-11.5806	-52.7485	-0.0508	1.7724	-0.6757
-25.6286	-11.5565	-52.7851	-0.0406	1.9339	-0.6240
-25.6302	-11.5513	-52.7986	-0.0351	1.9843	-0.5898
-25.6321	-11.5592	-52.8120	-0.0264	1.9854	-0.5233
-25.6330	-11.5649	-52.8179	-0.0223	1.9766	-0.4906
-25.6383	-11.5563	-52.8605	-0.0000	2.0827	-0.3367
-25.6396	-11.5667	-52.8690	0.0057	2.0503	-0.2878
-25.6403	-11.5762	-52.8727	0.0083	2.0155	-0.2623
-25.6414	-11.5782	-52.8807	0.0127	2.0155	-0.2284
-25.6427	-11.5723	-52.8915	0.0185	2.0488	-0.1891
-25.6435	-11.5709	-52.8986	0.0225	2.0598	-0.1603
-25.6448	-11.5755	-52.9074	0.0273	2.0454	-0.1207
-25.6459	-11.5739	-52.9166	0.0325	2.0557	-0.0829
-25.6466	-11.5741	-52.9225	0.0358	2.0565	-0.0579
-25.6479	-11.5762	-52.9316	0.0406	2.0487	-0.0193
-25.6489	-11.5832	-52.9386	0.0438	2.0197	0.0100
-25.6510	-11.5828	-52.9550	0.0525	2.0181	0.0766
-25.6521	-11.5824	-52.9632	0.0568	2.0164	0.1100
-25.6595	-11.5879	-53.0199	0.0833	1.9436	0.3255
-25.6630	-11.5864	-53.0476	0.0957	1.9075	0.4265
-25.6641	-11.5864	-53.0563	0.0992	1.8926	0.4562
-25.6652	-11.5874	-53.0642	0.1020	1.8747	0.4806
-25.6662	-11.5874	-53.0719	0.1050	1.8602	0.5055
-25.6673	-11.5879	-53.0810	0.1081	1.8407	0.5331
-25.6687	-11.5879	-53.0911	0.1117	1.8197	0.5641
-25.6697	-11.5898	-53.0985	0.1136	1.7988	0.5818
-25.6710	-11.5913	-53.1095	0.1166	1.7705	0.6097
-25.6723	-11.5920	-53.1191	0.1193	1.7468	0.6342
-25.6736	-11.5935	-53.1293	0.1217	1.7198	0.6570
-25.6748	-11.5943	-53.1381	0.1238	1.6973	0.6769
-25.6763	-11.5926	-53.1498	0.1274	1.6733	0.7084
-25.6773	-11.5935	-53.1576	0.1289	1.6522	0.7236
-25.6788	-11.5937	-53.1691	0.1315	1.6234	0.7477
-25.6802	-11.5980	-53.1787	0.1320	1.5911	0.7567
-25.6849	-11.6213	-53.2120	0.1299	1.4709	0.7608
-25.6863	-11.6210	-53.2232	0.1317	1.4459	0.7786
-25.6914	-11.6278	-53.2611	0.1342	1.3507	0.8132
-25.6917	-11.6130	-53.2659	0.1393	1.3564	0.8518
-25.6915	-11.5965	-53.2675	0.1449	1.3703	0.8930
-25.6921	-11.5899	-53.2737	0.1477	1.3615	0.9158
-25.6941	-11.5931	-53.2883	0.1476	1.3219	0.9215
-25.6958	-11.5652	-53.3057	0.1581	1.2987	1.0057
-25.7093	-11.5879	-53.4067	0.1505	1.0496	0.9880
-25.7109	-11.5693	-53.4227	0.1549	1.0163	1.0275
-25.8566	-11.6722	-54.5318	0.0748	0.1990	0.5437
-25.8620	-11.6573	-54.5760	0.0734	0.1858	0.5354
-25.8634	-11.6024	-54.5960	0.0737	0.1675	0.5406
-25.6652	-10.7334	-53.2171	0.1405	-1.7281	1.3663
-25.6643	-10.7352	-53.2098	0.1398	-1.7654	1.3670
-25.6630	-10.7341	-53.2002	0.1365	-1.8113	1.3488
-25.6618	-10.7333	-53.1907	0.1331	-1.8575	1.3298
-25.6604	-10.7334	-53.1806	0.1298	-1.9086	1.3128
-25.6593	-10.7327	-53.1725	0.1264	-1.9485	1.2931
-25.6581	-10.7317	-53.1637	0.1223	-1.9912	1.2685
-25.6570	-10.7322	-53.1552	0.1190	-2.0362	1.2502
-25.6558	-10.7311	-53.1457	0.1140	-2.0821	1.2191
-25.6551	-10.7325	-53.1401	0.1121	-2.1149	1.2098
-25.6540	-10.7313	-53.1320	0.1073	-2.1532	1.1786
-25.6529	-10.7316	-53.1242	0.1032	-2.1942	1.1542
-25.6520	-10.7312	-53.1169	0.0988	-2.2298	1.1262
-25.6509	-10.7293	-53.1086	0.0928	-2.2643	1.0850
-25.6500	-10.7295	-53.1022	0.0889	-2.2972	1.0604
-25.6492	-10.7299	-53.0958	0.0850	-2.3301	1.0349
-25.6483	-10.7291	-53.0891	0.0800	-2.3591	1.0014
-25.5557	-11.4761	-52.2620	-0.1281	0.6337	-1.1014
-25.5671	-11.5313	-52.3427	-0.1207	0.7995	-1.0714
-25.5823	-11.5415	-52.4597	-0.1185	1.0390	-1.0933
-25.5988	-11.5212	-52.5928	-0.1140	1.4080	-1.1185
-25.6028	-11.5321	-52.6219	-0.1045	1.4911	-1.0583
-25.6042	-11.5292	-52.6334	-0.1032	1.5316	-1.0542
-25.6060	-11.5272	-52.6482	-0.1004	1.5832	-1.0412
-25.6079	-11.5330	-52.6627	-0.0944	1.6223	-1.0006
-25.6093	-11.5356	-52.6726	-0.0905	1.6506	-0.9754
-25.6099	-11.5414	-52.6767	-0.0872	1.6532	-0.9494
-25.6170	-11.5495	-52.7317	-0.0653	1.8044	-0.8035
-25.6181	-11.5561	-52.7393	-0.0603	1.8086	-0.7649
-25.6190	-11.5617	-52.7450	-0.0563	1.8090	-0.7342
-25.6230	-11.5587	-52.7766	-0.0435	1.8999	-0.6485
-25.6277	-11.5438	-52.8171	-0.0265	2.0484	-0.5403
-25.6286	-11.5455	-52.8237	-0.0225	2.0561	-0.5104
-25.6343	-11.5631	-52.8657	0.0031	2.0557	-0.3102
-25.6356	-11.5724	-52.8747	0.0087	2.0280	-0.2626
-25.6367	-11.5764	-52.8825	0.0130	2.0197	-0.2272
-25.6378	-11.5703	-52.8923	0.0182	2.0528	-0.1919
-25.6387	-11.5689	-52.8995	0.0222	2.0639	-0.1626
-25.6398	-11.5735	-52.9073	0.0264	2.0493	-0.1272
-25.6408	-11.5768	-52.9141	0.0300	2.0383	-0.0972
-25.6416	-11.5791	-52.9211	0.0337	2.0311	-0.0676
-25.6429	-11.5783	-52.9314	0.0392	2.0361	-0.0253
-25.6440	-11.5823	-52.9395	0.0431	2.0197	0.0081
-25.6450	-11.5902	-52.9456	0.0455	1.9873	0.0322
-25.6463	-11.5950	-52.9552	0.0498	1.9667	0.0687
-25.6472	-11.5906	-52.9634	0.0543	1.9808	0.1019
-25.6483	-11.5941	-52.9709	0.0574	1.9634	0.1293
-25.6496	-11.6085	-52.9794	0.0592	1.9050	0.1530
-25.6586	-11.5862	-53.0549	0.0964	1.8952	0.4458
-25.6597	-11.5860	-53.0636	0.0999	1.8801	0.4751
-25.6608	-11.5880	-53.0717	0.1024	1.8585	0.4982
-25.6622	-11.5892	-53.0822	0.1058	1.8344	0.5288
-25.6632	-11.5899	-53.0902	0.1083	1.8161	0.5518
-25.6645	-11.5897	-53.1006	0.1118	1.7949	0.5825
-25.6656	-11.5901	-53.1087	0.1143	1.7761	0.6046
-25.6667	-11.5909	-53.1184	0.1169	1.7525	0.6292
-25.6681	-11.5933	-53.1287	0.1190	1.7224	0.6507
-25.6693	-11.5928	-53.1382	0.1217	1.7017	0.6754
-25.6704	-11.5926	-53.1466	0.1239	1.6823	0.6960
-25.6718	-11.5922	-53.1576	0.1267	1.6567	0.7220
-25.6730	-11.5934	-53.1669	0.1284	1.6311	0.7390
-25.6745	-11.5944	-53.1788	0.1306	1.5995	0.7612
-25.6788	-11.6181	-53.2093	0.1279	1.4842	0.7596
-25.6798	-11.6126	-53.2176	0.1310	1.4736	0.7856
-25.6802	-11.6001	-53.2235	0.1360	1.4781	0.8241
-25.6853	-11.5929	-53.2640	0.1431	1.3857	0.8947
-25.6870	-11.5815	-53.2807	0.1482	1.3546	0.9403
-25.6886	-11.5556	-53.2972	0.1583	1.3316	1.0225
-25.6909	-11.5595	-53.3146	0.1573	1.2816	1.0232
-25.7339	-11.6153	-53.6445	0.1283	0.6695	0.8963
-25.7358	-11.6106	-53.6601	0.1278	0.6490	0.8959
-25.7714	-11.6127	-53.9410	0.1066	0.4036	0.7706
-26.0599	-11.5586	-56.2166	0.0383	0.0423	0.2939
-25.6603	-10.7349	-53.2215	0.1399	-1.7160	1.3816
-25.6589	-10.7330	-53.2111	0.1362	-1.7643	1.3606
-25.6579	-10.7339	-53.2024	0.1344	-1.8081	1.3533
-25.6569	-10.7333	-53.1950	0.1319	-1.8442	1.3394
-25.6555	-10.7320	-53.1847	0.1278	-1.8938	1.3156
-25.6545	-10.7318	-53.1773	0.1250	-1.9306	1.3003
-25.6534	-10.7320	-53.1687	0.1220	-1.9751	1.2832
-25.6520	-10.7318	-53.1573	0.1172	-2.0332	1.2552
-25.6510	-10.7316	-53.1494	0.1136	-2.0738	1.2332
-25.6500	-10.7307	-53.1420	0.1096	-2.1095	1.2075
-25.6490	-10.7309	-53.1342	0.1057	-2.1503	1.1840
-25.6480	-10.7299	-53.1261	0.1009	-2.1885	1.1521
-25.6468	-10.7299	-53.1176	0.0961	-2.2320	1.1220
-25.6461	-10.7295	-53.1123	0.0928	-2.2569	1.1003
-25.6451	-10.7290	-53.1044	0.0877	-2.2947	1.0659
-25.6441	-10.7278	-53.0968	0.0822	-2.3262	1.0279
-25.6434	-10.7286	-53.0912	0.0789	-2.3568	1.0070
-25.6426	-10.7270	-53.0849	0.0738	-2.3794	0.9704
-25.6418	-10.7196	-53.0799	0.0669	-2.3669	0.9140
-25.5630	-11.4665	-52.3484	-0.1338	0.7643	-1.1874
-25.5748	-11.5478	-52.4296	-0.1149	0.9714	-1.0722
-25.5832	-11.5303	-52.4994	-0.1178	1.1321	-1.1209
-25.6035	-11.5305	-52.6614	-0.0937	1.6166	-1.0098
-25.6042	-11.5379	-52.6657	-0.0898	1.6188	-0.9790
-25.6052	-11.5456	-52.6727	-0.0851	1.6277	-0.9434
-25.6087	-11.5544	-52.6990	-0.0741	1.6907	-0.8662
-25.6093	-11.5650	-52.7023	-0.0697	1.6777	-0.8290
-25.6121	-11.5545	-52.7265	-0.0645	1.7709	-0.8030
-25.6130	-11.5607	-52.7332	-0.0601	1.7738	-0.7690
-25.6143	-11.5636	-52.7425	-0.0557	1.7915	-0.7370
-25.6154	-11.5650	-52.7511	-0.0519	1.8106	-0.7099
-25.6186	-11.5419	-52.7808	-0.0451	1.9597	-0.6797
-25.6194	-11.5438	-52.7864	-0.0419	1.9679	-0.6556
-25.6202	-11.5479	-52.7924	-0.0379	1.9691	-0.6245
-25.6244	-11.5530	-52.8253	-0.0201	2.0242	-0.4922
-25.6270	-11.5842	-52.8415	-0.0076	1.9358	-0.3783
-25.6305	-11.5631	-52.8732	0.0069	2.0596	-0.2833
-25.6314	-11.5719	-52.8791	0.0105	2.0297	-0.2493
-25.6326	-11.5700	-52.8885	0.0155	2.0465	-0.2125
-25.6333	-11.5685	-52.8947	0.0188	2.0574	-0.1882
-25.6348	-11.5734	-52.9055	0.0246	2.0443	-0.1394
-25.6355	-11.5738	-52.9115	0.0278	2.0458	-0.1143
-25.6365	-11.5821	-52.9182	0.0310	2.0142	-0.0834
-25.6378	-11.5834	-52.9287	0.0363	2.0113	-0.0409
-25.6386	-11.5805	-52.9358	0.0402	2.0239	-0.0121
-25.6396	-11.5864	-52.9430	0.0433	1.9995	0.0170
-25.6420	-11.5869	-52.9618	0.0526	1.9932	0.0919
-25.6486	-11.5770	-53.0169	0.0806	1.9854	0.3163
-25.6520	-11.5833	-53.0424	0.0901	1.9250	0.4015
-25.6534	-11.5880	-53.0533	0.0931	1.8909	0.4316
-25.6546	-11.5877	-53.0632	0.0971	1.8749	0.4653
-25.6556	-11.5874	-53.0720	0.1004	1.8596	0.4944
-25.6567	-11.5870	-53.0808	0.1036	1.8438	0.5231
-25.6577	-11.5890	-53.0881	0.1055	1.8231	0.5416
-25.6590	-11.5899	-53.0987	0.1088	1.7987	0.5713
-25.6602	-11.5899	-53.1080	0.1117	1.7786	0.5977
-25.6613	-11.5911	-53.1166	0.1138	1.7564	0.6187
-25.6624	-11.5922	-53.1252	0.1159	1.7342	0.6391
-25.6637	-11.5936	-53.1354	0.1182	1.7073	0.6618
-25.6650	-11.5925	-53.1460	0.1213	1.6850	0.6899
-25.6660	-11.5931	-53.1549	0.1232	1.6626	0.7089
-25.6674	-11.5939	-53.1653	0.1253	1.6355	0.7299
-25.6686	-11.5936	-53.1754	0.1275	1.6113	0.7515
-25.6730	-11.6161	-53.2063	0.1256	1.4961	0.7554
-25.6740	-11.6116	-53.2150	0.1284	1.4831	0.7801
-25.6745	-11.5992	-53.2210	0.1334	1.4879	0.8188
-25.6775	-11.6070	-53.2453	0.1338	1.4173	0.8344
-25.6809	-11.5934	-53.2742	0.1410	1.3622	0.9010
-25.6817	-11.5868	-53.2820	0.1438	1.3490	0.9252
-25.6854	-11.5680	-53.3155	0.1515	1.2774	0.9989
-25.6868	-11.5622	-53.3275	0.1537	1.2496	1.0206
-25.6872	-11.5541	-53.3324	0.1564	1.2406	1.0436
-25.6887	-11.5527	-53.3447	0.1568	1.2089	1.0522
-25.7379	-11.6075	-53.7306	0.1207	0.5726	0.8697
-25.7598	-11.5979	-53.9085	0.1082	0.4197	0.7954
-25.7987	-11.6339	-54.2129	0.0875	0.2806	0.6527
-25.8479	-11.6208	-54.6100	0.0704	0.1710	0.5345
-25.8465	-11.5883	-54.6044	0.0712	0.1633	0.5419
-25.8495	-11.5363	-54.6366	0.0707	0.1436	0.5418
-26.0301	-11.6073	-56.0717	0.0393	0.0508	0.3057
-25.6543	-10.7340	-53.2167	0.1353	-1.7465	1.3753
-25.6529	-10.7322	-53.2063	0.1316	-1.7953	1.3536
-25.6517	-10.7332	-53.1977	0.1297	-1.8396	1.3459
-25.6504	-10.7319	-53.1874	0.1257	-1.8893	1.3223
-25.6495	-10.7325	-53.1795	0.1233	-1.9307	1.3100
-25.6485	-10.7323	-53.1722	0.1206	-1.9679	1.2943
-25.6475	-10.7319	-53.1641	0.1172	-2.0083	1.2736
-25.6463	-10.7306	-53.1546	0.1124	-2.0544	1.2432
-25.6452	-10.7301	-53.1459	0.1082	-2.0977	1.2162
-25.6445	-10.7310	-53.1396	0.1057	-2.1334	1.2020
-25.6434	-10.7303	-53.1323	0.1015	-2.1691	1.1752
-25.6420	-10.7291	-53.1215	0.0950	-2.2203	1.1314
-25.6413	-10.7295	-53.1157	0.0920	-2.2510	1.1124
-25.6403	-10.7290	-53.1078	0.0870	-2.2889	1.0782
-25.6394	-10.7277	-53.1002	0.0816	-2.3207	1.0404
-25.6386	-10.7272	-53.0943	0.0776	-2.3474	1.0122
-25.6377	-10.7275	-53.0872	0.0729	-2.3823	0.9807
-25.6369	-10.7229	-53.0811	0.0666	-2.3881	0.9312
-25.5506	-11.4739	-52.2748	-0.1236	0.6481	-1.1108
-25.5747	-11.5464	-52.4593	-0.1115	1.0327	-1.0780
-25.5844	-11.5475	-52.5379	-0.1062	1.2253	-1.0676
-25.5852	-11.5565	-52.5437	-0.1027	1.2371	-1.0420
-25.5868	-11.5546	-52.5569	-0.1019	1.2729	-1.0409
-25.5901	-11.5733	-52.5807	-0.0929	1.3238	-0.9763
-25.5964	-11.5312	-52.6385	-0.0963	1.5339	-1.0392
-25.6002	-11.5525	-52.6663	-0.0820	1.5895	-0.9333
-25.6013	-11.5553	-52.6751	-0.0787	1.6109	-0.9101
-25.6097	-11.5661	-52.7423	-0.0534	1.7771	-0.7329
-25.6101	-11.5755	-52.7442	-0.0502	1.7575	-0.7040
-25.6139	-11.5403	-52.7812	-0.0438	1.9577	-0.6855
-25.6147	-11.5432	-52.7865	-0.0406	1.9619	-0.6603
-25.6167	-11.5863	-52.7969	-0.0269	1.8448	-0.5292
-25.6178	-11.5857	-52.8060	-0.0231	1.8641	-0.5014
-25.6192	-11.5864	-52.8169	-0.0182	1.8815	-0.4643
-25.6203	-11.5826	-52.8266	-0.0143	1.9111	-0.4382
-25.6235	-11.5681	-52.8559	-0.0017	2.0101	-0.3526
-25.6242	-11.5760	-52.8607	0.0014	1.9859	-0.3234
-25.6255	-11.5736	-52.8715	0.0066	2.0084	-0.2843
-25.6284	-11.5713	-52.8952	0.0188	2.0402	-0.1906
-25.6293	-11.5739	-52.9020	0.0224	2.0344	-0.1606
-25.6304	-11.5715	-52.9113	0.0273	2.0495	-0.1234
-25.6312	-11.5699	-52.9195	0.0316	2.0597	-0.0898
-25.6323	-11.5752	-52.9274	0.0355	2.0398	-0.0551
-25.6335	-11.5823	-52.9354	0.0391	2.0116	-0.0210
-25.6347	-11.5853	-52.9447	0.0434	1.9995	0.0164
-25.6355	-11.5892	-52.9509	0.0460	1.9832	0.0404
-25.6402	-11.5713	-52.9931	0.0690	2.0320	0.2193
-25.6412	-11.5723	-53.0014	0.0728	2.0197	0.2519
-25.6486	-11.5868	-53.0600	0.0940	1.8831	0.4481
-25.6500	-11.5870	-53.0712	0.0980	1.8623	0.4845
-25.6511	-11.5867	-53.0800	0.1012	1.8467	0.5133
-25.6520	-11.5887	-53.0873	0.1031	1.8261	0.5318
-25.6533	-11.5887	-53.0976	0.1065	1.8053	0.5628
-25.6543	-11.5878	-53.1065	0.1095	1.7887	0.5904
-25.6554	-11.5887	-53.1162	0.1120	1.7651	0.6153
-25.6566	-11.5908	-53.1251	0.1139	1.7396	0.6347
-25.6580	-11.5918	-53.1364	0.1165	1.7113	0.6611
-25.6589	-11.5930	-53.1440	0.1181	1.6905	0.6770
-25.6601	-11.5909	-53.1543	0.1212	1.6711	0.7060
-25.6614	-11.5918	-53.1647	0.1232	1.6440	0.7270
-25.6627	-11.5915	-53.1747	0.1254	1.6198	0.7487
-25.6675	-11.6070	-53.2129	0.1269	1.4985	0.7817
-25.6683	-11.6021	-53.2199	0.1295	1.4894	0.8045
-25.6699	-11.6051	-53.2328	0.1302	1.4534	0.8166
-25.6714	-11.6077	-53.2443	0.1308	1.4223	0.8264
-25.6735	-11.5997	-53.2630	0.1353	1.3868	0.8688
-25.6745	-11.5958	-53.2726	0.1373	1.3674	0.8888
-25.6753	-11.5853	-53.2810	0.1413	1.3570	0.9233
-25.6759	-11.5787	-53.2871	0.1439	1.3478	0.9459
-25.6770	-11.5783	-53.2960	0.1444	1.3250	0.9545
-25.6791	-11.5811	-53.3123	0.1442	1.2814	0.9602
-25.6804	-11.5803	-53.3231	0.1448	1.2550	0.9693
-25.7056	-11.6143	-53.5259	0.1313	0.8412	0.9302
-25.7489	-11.6091	-53.8816	0.1072	0.4458	0.8005
-25.7868	-11.6533	-54.1857	0.0864	0.2992	0.6555
-25.8002	-11.6524	-54.2953	0.0811	0.2593	0.6191
-25.8386	-11.6006	-54.6195	0.0690	0.1647	0.5364
-26.0341	-11.5381	-56.2317	0.0367	0.0404	0.2937
-25.6484	-10.7340	-53.2202	0.1322	-1.7407	1.3830
-25.6474	-10.7340	-53.2121	0.1302	-1.7805	1.3731
-25.6463	-10.7335	-53.2033	0.1275	-1.8238	1.3588
-25.6450	-10.7308	-53.1928	0.1229	-1.8720	1.3286
-25.6437	-10.7315	-53.1836	0.1202	-1.9205	1.3157
-25.6428	-10.7322	-53.1757	0.1178	-1.9622	1.3031
-25.6418	-10.7304	-53.1675	0.1136	-2.0006	1.2754
-25.6407	-10.7296	-53.1587	0.1096	-2.0439	1.2496
-25.6397	-10.7303	-53.1503	0.1063	-2.0895	1.2304
-25.6390	-10.7303	-53.1445	0.1037	-2.1200	1.2137
-25.6377	-10.7292	-53.1343	0.0981	-2.1688	1.1761
-25.6369	-10.7295	-53.1286	0.0952	-2.1995	1.1580
-25.6360	-10.7291	-53.1214	0.0910	-2.2353	1.1299
-25.6350	-10.7285	-53.1134	0.0861	-2.2733	1.0963
-25.6339	-10.7264	-53.1043	0.0796	-2.3098	1.0490
-25.6334	-10.7278	-53.1003	0.0778	-2.3359	1.0386
-25.6323	-10.7273	-53.0916	0.0720	-2.3754	0.9974
-25.6313	-10.7252	-53.0838	0.0657	-2.4021	0.9499
-25.5505	-11.4657	-52.3048	-0.1237	0.6851	-1.1455
-25.5562	-11.5486	-52.3388	-0.1079	0.7953	-1.0340
-25.5784	-11.5420	-52.5245	-0.1056	1.1865	-1.0835
-25.5914	-11.5313	-52.6352	-0.0937	1.5156	-1.0419
-25.5931	-11.5293	-52.6501	-0.0911	1.5662	-1.0290
-25.6025	-11.5828	-52.7204	-0.0547	1.6722	-0.7450
-25.6050	-11.5729	-52.7428	-0.0495	1.7526	-0.7163
-25.6094	-11.5419	-52.7849	-0.0401	1.9532	-0.6725
-25.6103	-11.5492	-52.7910	-0.0356	1.9441	-0.6334
-25.6112	-11.5558	-52.7986	-0.0307	1.9398	-0.5920
-25.6118	-11.5642	-52.8025	-0.0273	1.9198	-0.5602
-25.6126	-11.5778	-52.8062	-0.0232	1.8825	-0.5199
-25.6139	-11.5835	-52.8159	-0.0181	1.8820	-0.4776
-25.6149	-11.5836	-52.8247	-0.0143	1.8971	-0.4479
-25.6179	-11.5749	-52.8511	-0.0031	1.9701	-0.3672
-25.6191	-11.5757	-52.8616	0.0021	1.9813	-0.3265
-25.6208	-11.5649	-52.8775	0.0094	2.0432	-0.2767
-25.6222	-11.5702	-52.8882	0.0150	2.0322	-0.2275
-25.6244	-11.5035	-52.9184	0.0331	2.3768	-0.1368
-25.6351	-11.5657	-52.9989	0.0713	2.0467	0.2389
-25.6429	-11.5858	-53.0614	0.0926	1.8838	0.4457
-25.6439	-11.5856	-53.0702	0.0958	1.8687	0.4750
-25.6448	-11.5869	-53.0771	0.0979	1.8518	0.4951
-25.6460	-11.5884	-53.0865	0.1006	1.8292	0.5217
-25.6472	-11.5884	-53.0968	0.1039	1.8085	0.5526
-25.6482	-11.5889	-53.1050	0.1062	1.7900	0.5755
-25.6494	-11.5886	-53.1154	0.1094	1.7687	0.6056
-25.6504	-11.5884	-53.1248	0.1120	1.7483	0.6313
-25.6514	-11.5907	-53.1327	0.1134	1.7242	0.6467
-25.6527	-11.5907	-53.1437	0.1161	1.6990	0.6740
-25.6540	-11.5904	-53.1547	0.1188	1.6736	0.7006
-25.6550	-11.5900	-53.1631	0.1208	1.6541	0.7207
-25.6563	-11.5908	-53.1736	0.1227	1.6270	0.7413
-25.6576	-11.5936	-53.1839	0.1237	1.5958	0.7554
-25.6610	-11.6103	-53.2107	0.1228	1.5012	0.7646
-25.6624	-11.6062	-53.2226	0.1257	1.4796	0.7931
-25.6635	-11.6031	-53.2323	0.1280	1.4611	0.8149
-25.6645	-11.6038	-53.2410	0.1288	1.4388	0.8258
-25.6659	-11.6030	-53.2522	0.1303	1.4128	0.8427
-25.6673	-11.6036	-53.2645	0.1313	1.3824	0.8561
-25.6680	-11.5932	-53.2715	0.1351	1.3771	0.8892
-25.6685	-11.5851	-53.2782	0.1381	1.3686	0.9164
-25.6692	-11.5777	-53.2854	0.1410	1.3575	0.9421
-25.6748	-11.5618	-53.3356	0.1476	1.2386	1.0184
-25.6756	-11.5551	-53.3434	0.1497	1.2213	1.0388
-25.6870	-11.5902	-53.4332	0.1380	1.0096	0.9781
-25.7056	-11.6175	-53.5858	0.1246	0.7560	0.9111
-25.7221	-11.5791	-53.7316	0.1190	0.5638	0.8983
-25.8271	-11.6075	-54.6092	0.0678	0.1692	0.5385
-25.9580	-11.5720	-55.7149	0.0424	0.0607	0.3449
-26.0190	-11.5567	-56.2290	0.0359	0.0423	0.2939
-25.6426	-10.7333	-53.2260	0.1291	-1.7230	1.3897
-25.6416	-10.7326	-53.2171	0.1266	-1.7656	1.3762
-25.6404	-10.7315	-53.2075	0.1235	-1.8115	1.3583
-25.6394	-10.7325	-53.1989	0.1217	-1.8563	1.3506
-25.6381	-10.7318	-53.1895	0.1183	-1.9035	1.3309
-25.6370	-10.7314	-53.1801	0.1148	-1.9510	1.3102
-25.6359	-10.7303	-53.1713	0.1110	-1.9941	1.2857
-25.6351	-10.7304	-53.1641	0.1082	-2.0319	1.2690
-25.6341	-10.7302	-53.1562	0.1048	-2.0727	1.2472
-25.6331	-10.7297	-53.1475	0.1006	-2.1165	1.2200
-25.6322	-10.7299	-53.1397	0.0970	-2.1577	1.1965
-25.6313	-10.7284	-53.1328	0.0928	-2.1882	1.1664
-25.6301	-10.7280	-53.1236	0.0876	-2.2345	1.1318
-25.6293	-10.7281	-53.1172	0.0841	-2.2677	1.1079
-25.6284	-10.7276	-53.1092	0.0792	-2.3057	1.0733
-25.6277	-10.7284	-53.1036	0.0762	-2.3366	1.0532
-25.6265	-10.7262	-53.0939	0.0690	-2.3748	0.9991
-25.6258	-10.7259	-53.0880	0.0649	-2.4014	0.9699
-25.5728	-11.5295	-52.5158	-0.1064	1.1612	-1.1144
-25.5733	-11.5449	-52.5174	-0.1017	1.1633	-1.0751
-25.5800	-11.5584	-52.5729	-0.0920	1.3028	-1.0175
-25.5862	-11.5352	-52.6304	-0.0900	1.4891	-1.0336
-25.5870	-11.5414	-52.6358	-0.0868	1.4986	-1.0083
-25.5911	-11.5577	-52.6690	-0.0740	1.5745	-0.9129
-25.5978	-11.5725	-52.7237	-0.0540	1.6972	-0.7645
-25.6024	-11.5707	-52.7638	-0.0403	1.8032	-0.6672
-25.6049	-11.5467	-52.7889	-0.0354	1.9388	-0.6495
-25.6058	-11.5514	-52.7971	-0.0307	1.9428	-0.6103
-25.6068	-11.5589	-52.8045	-0.0259	1.9343	-0.5680
-25.6075	-11.5654	-52.8090	-0.0227	1.9218	-0.5386
-25.6087	-11.5711	-52.8184	-0.0177	1.9212	-0.4953
-25.6097	-11.5741	-52.8263	-0.0137	1.9254	-0.4623
-25.6105	-11.5755	-52.8324	-0.0108	1.9310	-0.4384
-25.6117	-11.5778	-52.8428	-0.0059	1.9398	-0.3979
-25.6127	-11.5784	-52.8512	-0.0020	1.9500	-0.3662
-25.6133	-11.5745	-52.8582	0.0010	1.9740	-0.3457
-25.6145	-11.5711	-52.8682	0.0055	2.0002	-0.3115
-25.6155	-11.5705	-52.8777	0.0101	2.0138	-0.2749
-25.6283	-11.5962	-52.9844	0.0583	1.9350	0.1510
-25.6316	-11.5796	-53.0154	0.0743	1.9706	0.2820
-25.6366	-11.5856	-53.0583	0.0896	1.8880	0.4280
-25.6377	-11.5856	-53.0671	0.0928	1.8732	0.4575
-25.6389	-11.5860	-53.0773	0.0961	1.8534	0.4897
-25.6399	-11.5866	-53.0864	0.0989	1.8343	0.5174
-25.6408	-11.5876	-53.0935	0.1009	1.8172	0.5368
-25.6420	-11.5876	-53.1038	0.1040	1.7964	0.5675
-25.6432	-11.5873	-53.1142	0.1071	1.7752	0.5977
-25.6442	-11.5894	-53.1231	0.1088	1.7498	0.6174
-25.6454	-11.5910	-53.1333	0.1110	1.7231	0.6406
-25.6464	-11.5909	-53.1416	0.1130	1.7041	0.6617
-25.6476	-11.5908	-53.1527	0.1156	1.6788	0.6885
-25.6487	-11.5922	-53.1619	0.1172	1.6535	0.7062
-25.6499	-11.5921	-53.1720	0.1192	1.6296	0.7283
-25.6511	-11.5918	-53.1821	0.1213	1.6056	0.7498
-25.6551	-11.6167	-53.2128	0.1185	1.4877	0.7481
-25.6564	-11.6150	-53.2247	0.1207	1.4634	0.7708
-25.6571	-11.6076	-53.2320	0.1238	1.4575	0.7989
-25.6583	-11.6052	-53.2422	0.1257	1.4365	0.8190
-25.6592	-11.6001	-53.2508	0.1282	1.4225	0.8428
-25.6597	-11.5930	-53.2568	0.1310	1.4170	0.8676
-25.6636	-11.5913	-53.2920	0.1341	1.3313	0.9099
-25.6694	-11.5879	-53.3416	0.1368	1.2139	0.9546
-25.6978	-11.6177	-53.5826	0.1222	0.7635	0.9108
-25.6981	-11.6037	-53.5875	0.1241	0.7525	0.9289
-25.7141	-11.6154	-53.7245	0.1131	0.5901	0.8643
-25.8202	-11.6545	-54.6322	0.0647	0.1776	0.5244
-25.8472	-11.5991	-54.8739	0.0582	0.1277	0.4771
-25.8738	-11.5476	-55.1140	0.0525	0.0931	0.4347
-25.9966	-11.5637	-56.1673	0.0358	0.0447	0.2994
-25.6354	-10.7315	-53.2205	0.1228	-1.7569	1.3795
-25.6343	-10.7309	-53.2116	0.1202	-1.7999	1.3655
-25.6333	-10.7305	-53.2028	0.1176	-1.8433	1.3508
-25.6320	-10.7292	-53.1926	0.1138	-1.8931	1.3273
-25.6309	-10.7287	-53.1832	0.1104	-1.9403	1.3067
-25.6300	-10.7295	-53.1753	0.1080	-1.9823	1.2939
-25.6289	-10.7294	-53.1660	0.1044	-2.0305	1.2716
-25.6282	-10.7301	-53.1596	0.1022	-2.0659	1.2586
-25.6270	-10.7278	-53.1499	0.0967	-2.1100	1.2196
-25.6263	-10.7288	-53.1436	0.0943	-2.1459	1.2054
-25.6255	-10.7294	-53.1366	0.0913	-2.1847	1.1861
-25.6243	-10.7281	-53.1278	0.0860	-2.2258	1.1489
-25.6235	-10.7278	-53.1206	0.0820	-2.2616	1.1203
-25.6227	-10.7267	-53.1139	0.0776	-2.2916	1.0882
-25.6219	-10.7267	-53.1067	0.0734	-2.3272	1.0582
-25.6209	-10.7264	-53.0988	0.0684	-2.3649	1.0222
-25.6199	-10.7260	-53.0902	0.0627	-2.4046	0.9801
-25.6195	-10.7218	-53.0877	0.0593	-2.3958	0.9484
-25.5689	-11.5365	-52.5185	-0.1004	1.1639	-1.0933
-25.5726	-11.5312	-52.5526	-0.0990	1.2565	-1.0990
-25.5732	-11.5610	-52.5521	-0.0903	1.2424	-1.0204
-25.5766	-11.5549	-52.5828	-0.0883	1.3272	-1.0181
-25.5777	-11.5593	-52.5918	-0.0857	1.3486	-0.9993
-25.5824	-11.5357	-52.6379	-0.0848	1.5060	-1.0211
-25.5897	-11.5323	-52.7030	-0.0694	1.7184	-0.9257
-25.5923	-11.5443	-52.7244	-0.0588	1.7576	-0.8410
-25.5971	-11.5590	-52.7633	-0.0411	1.8276	-0.6985
-25.5994	-11.5453	-52.7872	-0.0345	1.9307	-0.6603
-25.6003	-11.5498	-52.7943	-0.0305	1.9336	-0.6255
-25.6012	-11.5552	-52.8012	-0.0264	1.9321	-0.5896
-25.6022	-11.5645	-52.8082	-0.0217	1.9157	-0.5456
-25.6031	-11.5764	-52.8137	-0.0175	1.8870	-0.5035
-25.6087	-11.5633	-52.8666	0.0049	2.0220	-0.3324
-25.6098	-11.5647	-52.8757	0.0094	2.0279	-0.2942
-25.6144	-11.5767	-52.9146	0.0281	2.0119	-0.1268
-25.6156	-11.5782	-52.9249	0.0329	2.0100	-0.0844
-25.6163	-11.5764	-52.9311	0.0359	2.0190	-0.0598
-25.6175	-11.5796	-52.9415	0.0405	2.0075	-0.0173
-25.6231	-11.5895	-52.9900	0.0607	1.9525	0.1700
-25.6294	-11.5819	-53.0477	0.0850	1.9158	0.3901
-25.6305	-11.5830	-53.0566	0.0879	1.8978	0.4193
-25.6315	-11.5840	-53.0656	0.0908	1.8794	0.4481
-25.6327	-11.5855	-53.0760	0.0939	1.8561	0.4796
-25.6336	-11.5845	-53.0835	0.0966	1.8453	0.5053
-25.6345	-11.5849	-53.0927	0.0993	1.8260	0.5328
-25.6358	-11.5868	-53.1036	0.1020	1.7984	0.5617
-25.6368	-11.5882	-53.1121	0.1040	1.7765	0.5831
-25.6380	-11.5900	-53.1221	0.1061	1.7500	0.6068
-25.6390	-11.5911	-53.1309	0.1080	1.7281	0.6275
-25.6402	-11.5903	-53.1415	0.1108	1.7063	0.6562
-25.6412	-11.5897	-53.1510	0.1132	1.6857	0.6807
-25.6423	-11.5903	-53.1598	0.1149	1.6635	0.6998
-25.6432	-11.5894	-53.1695	0.1171	1.6425	0.7234
-25.6444	-11.5900	-53.1800	0.1188	1.6155	0.7439
-25.6492	-11.6065	-53.2186	0.1198	1.4926	0.7756
-25.6501	-11.6041	-53.2272	0.1216	1.4760	0.7945
-25.6513	-11.6013	-53.2383	0.1238	1.4533	0.8178
-25.6522	-11.6004	-53.2479	0.1251	1.4316	0.8333
-25.6531	-11.5928	-53.2566	0.1282	1.4201	0.8629
-25.6539	-11.5860	-53.2655	0.1310	1.4058	0.8908
-25.6552	-11.5886	-53.2761	0.1310	1.3762	0.8961
-25.6571	-11.5781	-53.2950	0.1354	1.3387	0.9412
-25.6600	-11.5779	-53.3203	0.1363	1.2747	0.9616
-25.6599	-11.5668	-53.3233	0.1396	1.2747	0.9912
-25.6608	-11.5612	-53.3319	0.1414	1.2558	1.0105
-25.6834	-11.6037	-53.5244	0.1252	0.8516	0.9435
-25.6920	-11.5985	-53.6025	0.1211	0.7328	0.9304
-25.7022	-11.5968	-53.6924	0.1150	0.6195	0.8974
-25.7035	-11.5708	-53.7083	0.1167	0.5896	0.9185
-25.8033	-11.5304	-54.6010	0.0661	0.1507	0.5555
-25.9550	-11.5964	-55.9300	0.0376	0.0554	0.3212
-25.9850	-11.5321	-56.2074	0.0345	0.0410	0.2969
-25.6292	-10.7310	-53.2247	0.1193	-1.7450	1.3868
-25.6281	-10.7303	-53.2158	0.1169	-1.7880	1.3729
-25.6271	-10.7306	-53.2064	0.1146	-1.8356	1.3616
-25.6259	-10.7293	-53.1961	0.1109	-1.8856	1.3382
-25.6250	-10.7306	-53.1876	0.1089	-1.9316	1.3294
-25.6240	-10.7294	-53.1788	0.1052	-1.9751	1.3051
-25.6228	-10.7293	-53.1695	0.1016	-2.0235	1.2830
-25.6219	-10.7290	-53.1615	0.0983	-2.0644	1.2614
-25.6209	-10.7276	-53.1534	0.0941	-2.1032	1.2314
-25.6200	-10.7277	-53.1455	0.0906	-2.1444	1.2082
-25.6192	-10.7270	-53.1382	0.0868	-2.1806	1.1811
-25.6183	-10.7274	-53.1305	0.0831	-2.2220	1.1563
-25.6177	-10.7278	-53.1248	0.0803	-2.2531	1.1375
-25.6166	-10.7259	-53.1165	0.0748	-2.2882	1.0956
-25.6158	-10.7258	-53.1093	0.0707	-2.3239	1.0656
-25.6149	-10.7256	-53.1014	0.0658	-2.3617	1.0298
-25.6142	-10.7252	-53.0955	0.0620	-2.3887	1.0009
-25.6135	-10.7237	-53.0892	0.0573	-2.4113	0.9636
-25.5358	-11.4701	-52.2710	-0.1094	0.6352	-1.1025
-25.5396	-11.4804	-52.3037	-0.1094	0.6921	-1.1137
-25.5644	-11.5328	-52.5173	-0.0978	1.1577	-1.1001
-25.5686	-11.5210	-52.5574	-0.0980	1.2696	-1.1230
-25.5691	-11.5336	-52.5597	-0.0939	1.2710	-1.0869
-25.5730	-11.5626	-52.5893	-0.0818	1.3345	-0.9905
-25.5774	-11.5379	-52.6336	-0.0816	1.4848	-1.0175
-25.5788	-11.5324	-52.6469	-0.0806	1.5326	-1.0179
-25.5800	-11.5298	-52.6594	-0.0786	1.5756	-1.0090
-25.5879	-11.5584	-52.7256	-0.0519	1.7209	-0.7977
-25.5892	-11.5562	-52.7374	-0.0487	1.7592	-0.7754
-25.5912	-11.5643	-52.7541	-0.0410	1.7823	-0.7111
-25.5946	-11.5459	-52.7878	-0.0321	1.9227	-0.6583
-25.5954	-11.5491	-52.7942	-0.0288	1.9282	-0.6291
-25.5963	-11.5545	-52.8011	-0.0248	1.9267	-0.5934
-25.5970	-11.5626	-52.8073	-0.0208	1.9131	-0.5547
-25.5981	-11.5709	-52.8148	-0.0164	1.9005	-0.5126
-25.5987	-11.5783	-52.8193	-0.0135	1.8844	-0.4837
-25.5996	-11.5901	-52.8253	-0.0096	1.8561	-0.4437
-25.6007	-11.5991	-52.8334	-0.0055	1.8395	-0.4034
-25.6037	-11.5590	-52.8680	0.0061	2.0342	-0.3366
-25.6046	-11.5583	-52.8773	0.0105	2.0486	-0.2996
-25.6062	-11.5641	-52.8906	0.0171	2.0394	-0.2385
-25.6074	-11.5740	-52.8988	0.0211	2.0064	-0.1966
-25.6094	-11.5853	-52.9145	0.0280	1.9720	-0.1274
-25.6111	-11.5871	-52.9302	0.0348	1.9710	-0.0661
-25.6121	-11.5803	-52.9409	0.0400	1.9994	-0.0251
-25.6128	-11.5803	-52.9470	0.0427	1.9995	-0.0005
-25.6177	-11.5955	-52.9887	0.0585	1.9271	0.1554
-25.6238	-11.5811	-53.0470	0.0835	1.9174	0.3822
-25.6251	-11.5849	-53.0576	0.0863	1.8876	0.4132
-25.6259	-11.5852	-53.0654	0.0888	1.8741	0.4388
-25.6271	-11.5845	-53.0764	0.0926	1.8571	0.4760
-25.6280	-11.5831	-53.0851	0.0957	1.8452	0.5059
-25.6289	-11.5839	-53.0932	0.0979	1.8271	0.5294
-25.6300	-11.5852	-53.1027	0.1003	1.8041	0.5554
-25.6308	-11.5861	-53.1098	0.1020	1.7869	0.5743
-25.6319	-11.5857	-53.1202	0.1049	1.7656	0.6044
-25.6331	-11.5884	-53.1306	0.1067	1.7357	0.6266
-25.6342	-11.5889	-53.1405	0.1089	1.7122	0.6505
-25.6355	-11.5889	-53.1515	0.1113	1.6871	0.6776
-25.6365	-11.5895	-53.1603	0.1130	1.6649	0.6967
-25.6375	-11.5895	-53.1704	0.1149	1.6410	0.7191
-25.6385	-11.5897	-53.1794	0.1165	1.6186	0.7375
-25.6420	-11.6096	-53.2072	0.1150	1.5153	0.7441
-25.6434	-11.6122	-53.2196	0.1159	1.4824	0.7590
-25.6445	-11.6078	-53.2300	0.1185	1.4653	0.7853
-25.6449	-11.6001	-53.2356	0.1214	1.4633	0.8119
-25.6461	-11.5948	-53.2469	0.1242	1.4434	0.8408
-25.6469	-11.5928	-53.2560	0.1256	1.4237	0.8574
-25.6475	-11.5850	-53.2628	0.1285	1.4161	0.8854
-25.6505	-11.5906	-53.2889	0.1286	1.3448	0.9002
-25.6564	-11.5933	-53.3410	0.1297	1.2181	0.9347
-25.6667	-11.5998	-53.4342	0.1273	1.0163	0.9524
-25.6682	-11.5991	-53.4479	0.1270	0.9897	0.9550
-25.6760	-11.6001	-53.5187	0.1236	0.8633	0.9488
-25.6963	-11.6059	-53.7026	0.1109	0.6143	0.8826
-25.6975	-11.5790	-53.7180	0.1127	0.5855	0.9046
-25.7119	-11.6010	-53.8443	0.1015	0.4787	0.8245
-25.7972	-11.5999	-54.6185	0.0632	0.1676	0.5389
-25.9463	-11.6105	-55.9669	0.0363	0.0557	0.3173
-25.6237	-10.7300	-53.2264	0.1153	-1.7435	1.3890
-25.6227	-10.7294	-53.2175	0.1129	-1.7865	1.3753
-25.6216	-10.7291	-53.2073	0.1101	-1.8371	1.3600
-25.6207	-10.7300	-53.2002	0.1084	-1.8751	1.3530
-25.6195	-10.7288	-53.1899	0.1047	-1.9256	1.3288
-25.6188	-10.7300	-53.1829	0.1029	-1.9648	1.3207
-25.6177	-10.7285	-53.1733	0.0987	-2.0114	1.2915
-25.6170	-10.7291	-53.1669	0.0966	-2.0467	1.2791
-25.6159	-10.7280	-53.1575	0.0921	-2.0935	1.2481
-25.6150	-10.7276	-53.1489	0.0882	-2.1375	1.2207
-25.6142	-10.7269	-53.1416	0.0845	-2.1736	1.1940
-25.6132	-10.7272	-53.1339	0.0808	-2.2153	1.1694
-25.6122	-10.7261	-53.1251	0.0757	-2.2564	1.1312
-25.6117	-10.7270	-53.1202	0.0735	-2.2850	1.1171
-25.6108	-10.7265	-53.1123	0.0688	-2.3235	1.0823
-25.6099	-10.7249	-53.1041	0.0633	-2.3579	1.0387
-25.6092	-10.7255	-53.0978	0.0597	-2.3912	1.0125
-25.5353	-11.5230	-52.2782	-0.0975	0.6828	-1.0313
-25.5366	-11.5489	-52.2850	-0.0933	0.7069	-0.9985
-25.5583	-11.5109	-52.4924	-0.1016	1.0907	-1.1522
-25.5584	-11.5275	-52.4903	-0.0972	1.0873	-1.1111
-25.5634	-11.5470	-52.5321	-0.0892	1.1895	-1.0587
-25.5650	-11.5456	-52.5471	-0.0882	1.2287	-1.0572
-25.5694	-11.5643	-52.5843	-0.0787	1.3161	-0.9878
-25.5755	-11.5521	-52.6434	-0.0720	1.4915	-0.9619
-25.5771	-11.5482	-52.6597	-0.0696	1.5445	-0.9505
-25.5783	-11.5487	-52.6701	-0.0670	1.5744	-0.9333
-25.5840	-11.5669	-52.7191	-0.0491	1.6784	-0.7890
-25.5908	-11.5461	-52.7869	-0.0300	1.9129	-0.6617
-25.5916	-11.5522	-52.7924	-0.0266	1.9068	-0.6288
-25.5925	-11.5579	-52.8004	-0.0223	1.9069	-0.5894
-25.5932	-11.5606	-52.8060	-0.0195	1.9102	-0.5648
-25.5942	-11.5671	-52.8141	-0.0152	1.9054	-0.5245
-25.5953	-11.5708	-52.8241	-0.0106	1.9122	-0.4835
-25.5970	-11.5810	-52.8368	-0.0043	1.8992	-0.4222
-25.5990	-11.5504	-52.8620	0.0041	2.0535	-0.3763
-25.5998	-11.5537	-52.8696	0.0079	2.0509	-0.3407
-25.6137	-11.6003	-52.9891	0.0579	1.9054	0.1487
-25.6196	-11.5831	-53.0475	0.0825	1.9072	0.3751
-25.6205	-11.5779	-53.0575	0.0872	1.9099	0.4175
-25.6213	-11.5772	-53.0649	0.0899	1.8998	0.4441
-25.6225	-11.5819	-53.0748	0.0918	1.8665	0.4692
-25.6233	-11.5851	-53.0823	0.0933	1.8427	0.4874
-25.6245	-11.5853	-53.0926	0.0963	1.8226	0.5190
-25.6256	-11.5854	-53.1030	0.0992	1.8021	0.5500
-25.6266	-11.5855	-53.1123	0.1016	1.7825	0.5766
-25.6276	-11.5855	-53.1216	0.1040	1.7626	0.6027
-25.6286	-11.5872	-53.1317	0.1060	1.7359	0.6261
-25.6295	-11.5886	-53.1394	0.1073	1.7153	0.6426
-25.6307	-11.5886	-53.1504	0.1097	1.6903	0.6698
-25.6317	-11.5893	-53.1592	0.1113	1.6682	0.6891
-25.6328	-11.5893	-53.1693	0.1132	1.6443	0.7117
-25.6339	-11.5900	-53.1798	0.1149	1.6176	0.7323
-25.6385	-11.6084	-53.2194	0.1153	1.4901	0.7625
-25.6392	-11.6020	-53.2272	0.1181	1.4820	0.7898
-25.6402	-11.5990	-53.2368	0.1201	1.4636	0.8116
-25.6411	-11.5973	-53.2458	0.1215	1.4442	0.8286
-25.6420	-11.5892	-53.2556	0.1248	1.4311	0.8615
-25.6426	-11.5837	-53.2624	0.1269	1.4207	0.8836
-25.6459	-11.5943	-53.2918	0.1257	1.3361	0.8900
-25.6461	-11.5819	-53.2958	0.1295	1.3381	0.9241
-25.6499	-11.5940	-53.3284	0.1272	1.2493	0.9216
-25.6596	-11.6016	-53.4177	0.1253	1.0514	0.9439
-25.6614	-11.5999	-53.4342	0.1252	1.0188	0.9500
-25.6630	-11.6006	-53.4493	0.1246	0.9895	0.9501
-25.6672	-11.5897	-53.4907	0.1249	0.9127	0.9689
-25.6892	-11.6166	-53.6895	0.1086	0.6352	0.8754
-25.6906	-11.5924	-53.7087	0.1100	0.6040	0.8941
-25.6918	-11.5682	-53.7244	0.1113	0.5755	0.9125
-25.7932	-11.6451	-54.6502	0.0603	0.1740	0.5228
-25.7980	-11.5983	-54.7045	0.0593	0.1531	0.5175
-25.8402	-11.6028	-55.0964	0.0492	0.1059	0.4342
-25.8384	-11.5627	-55.0874	0.0496	0.0994	0.4395
-25.6186	-10.7309	-53.2288	0.1120	-1.7405	1.4010
-25.6176	-10.7302	-53.2200	0.1096	-1.7837	1.3875
-25.6166	-10.7297	-53.2112	0.1072	-1.8273	1.3733
-25.6156	-10.7289	-53.2017	0.1041	-1.8744	1.3543
-25.6144	-10.7277	-53.1915	0.1003	-1.9248	1.3303
-25.6134	-10.7279	-53.1829	0.0975	-1.9698	1.3136
-25.6125	-10.7282	-53.1743	0.0946	-2.0154	1.2962
-25.6116	-10.7274	-53.1656	0.0909	-2.0593	1.2703
-25.6108	-10.7269	-53.1590	0.0879	-2.0927	1.2497
-25.6102	-10.7278	-53.1527	0.0856	-2.1288	1.2359
-25.6091	-10.7266	-53.1426	0.0805	-2.1784	1.1984
-25.6082	-10.7257	-53.1346	0.0761	-2.2172	1.1660
-25.6073	-10.7253	-53.1274	0.0722	-2.2533	1.1376
-25.6066	-10.7254	-53.1210	0.0689	-2.2869	1.1135
-25.6059	-10.7257	-53.1146	0.0655	-2.3205	1.0888
-25.6052	-10.7248	-53.1079	0.0613	-2.3504	1.0557
-25.6042	-10.7240	-53.0985	0.0553	-2.3928	1.0090
-25.6036	-10.7240	-53.0934	0.0521	-2.4176	0.9846
-25.6029	-10.7167	-53.0886	0.0463	-2.4043	0.9272
-25.5340	-11.4930	-52.2965	-0.0998	0.6889	-1.0845
-25.5372	-11.5234	-52.3203	-0.0952	0.7453	-1.0531
-25.5467	-11.5358	-52.4075	-0.0936	0.9055	-1.0721
-25.5593	-11.5534	-52.5224	-0.0847	1.1604	-1.0429
-25.5606	-11.5535	-52.5345	-0.0836	1.1903	-1.0391
-25.5663	-11.5555	-52.5889	-0.0768	1.3307	-1.0052
-25.5673	-11.5583	-52.5977	-0.0748	1.3521	-0.9907
-25.5744	-11.5454	-52.6679	-0.0650	1.5676	-0.9448
-25.5753	-11.5517	-52.6748	-0.0617	1.5775	-0.9152
-25.5771	-11.5616	-52.6902	-0.0553	1.6044	-0.8606
-25.5845	-11.4927	-52.7753	-0.0453	2.0481	-0.8610
-25.5867	-11.5455	-52.7842	-0.0286	1.9005	-0.6723
-25.5877	-11.5527	-52.7929	-0.0238	1.8990	-0.6271
-25.5885	-11.5588	-52.7986	-0.0205	1.8928	-0.5947
-25.5893	-11.5660	-52.8052	-0.0168	1.8838	-0.5575
-25.5902	-11.5693	-52.8131	-0.0132	1.8891	-0.5250
-25.5938	-11.5401	-52.8539	0.0011	2.0746	-0.4299
-25.5949	-11.5411	-52.8638	0.0059	2.0875	-0.3872
-25.5955	-11.5480	-52.8685	0.0087	2.0658	-0.3567
-25.6049	-11.6048	-52.9460	0.0413	1.8970	-0.0133
-25.6092	-11.5962	-52.9891	0.0585	1.9167	0.1457
-25.6097	-11.5885	-52.9960	0.0622	1.9404	0.1757
-25.6106	-11.5815	-53.0060	0.0672	1.9590	0.2189
-25.6135	-11.5890	-53.0316	0.0751	1.9048	0.3051
-25.6140	-11.5828	-53.0381	0.0787	1.9186	0.3357
-25.6149	-11.5812	-53.0465	0.0819	1.9126	0.3675
-25.6157	-11.5814	-53.0552	0.0848	1.8987	0.3977
-25.6167	-11.5835	-53.0645	0.0873	1.8771	0.4259
-25.6178	-11.5841	-53.0747	0.0903	1.8579	0.4584
-25.6186	-11.5832	-53.0822	0.0928	1.8474	0.4842
-25.6198	-11.5822	-53.0933	0.0963	1.8297	0.5207
-25.6206	-11.5851	-53.1009	0.0975	1.8058	0.5381
-25.6216	-11.5854	-53.1102	0.0999	1.7864	0.5646
-25.6226	-11.5867	-53.1188	0.1017	1.7646	0.5861
-25.6238	-11.5877	-53.1311	0.1043	1.7356	0.6171
-25.6246	-11.5869	-53.1391	0.1063	1.7201	0.6397
-25.6256	-11.5878	-53.1479	0.1080	1.6980	0.6596
-25.6266	-11.5880	-53.1578	0.1099	1.6744	0.6827
-25.6276	-11.5895	-53.1671	0.1112	1.6493	0.7004
-25.6287	-11.5880	-53.1779	0.1135	1.6269	0.7274
-25.6299	-11.5895	-53.1889	0.1149	1.5973	0.7463
-25.6345	-11.5929	-53.2324	0.1195	1.4848	0.8147
-25.6357	-11.5948	-53.2433	0.1201	1.4553	0.8263
-25.6371	-11.5951	-53.2566	0.1212	1.4226	0.8436
-25.6386	-11.5983	-53.2704	0.1213	1.3851	0.8531
-25.6432	-11.5950	-53.3148	0.1245	1.2826	0.9052
-25.6445	-11.5943	-53.3275	0.1250	1.2533	0.9164
-25.6449	-11.5831	-53.3342	0.1281	1.2453	0.9472
-25.6465	-11.5722	-53.3510	0.1310	1.2110	0.9826
-25.6537	-11.5820	-53.4184	0.1274	1.0561	0.9812
-25.6567	-11.5805	-53.4472	0.1266	0.9972	0.9865
-25.6580	-11.5768	-53.4605	0.1267	0.9708	0.9933
-25.6603	-11.5816	-53.4807	0.1247	0.9327	0.9826
-25.6628	-11.5861	-53.5037	0.1226	0.8918	0.9716
-25.6647	-11.5866	-53.5233	0.1214	0.8582	0.9671
-25.7366	-11.6383	-54.1961	0.0763	0.2970	0.6601
-25.7389	-11.6244	-54.2217	0.0755	0.2821	0.6563
-25.8111	-11.6036	-54.9130	0.0523	0.1259	0.4699
-25.9488	-11.5152	-56.2420	0.0319	0.0392	0.2951
-25.6132	-10.7304	-53.2311	0.1079	-1.7367	1.4060
-25.6125	-10.7301	-53.2244	0.1062	-1.7699	1.3971
-25.6115	-10.7289	-53.2148	0.1033	-1.8165	1.3792
-25.6105	-10.7280	-53.2053	0.1003	-1.8634	1.3606
-25.6095	-10.7274	-53.1958	0.0971	-1.9109	1.3409
-25.6086	-10.7279	-53.1880	0.0948	-1.9530	1.3288
-25.6076	-10.7277	-53.1787	0.0915	-2.0014	1.3074
-25.6068	-10.7265	-53.1712	0.0881	-2.0376	1.2833
-25.6060	-10.7276	-53.1636	0.0857	-2.0811	1.2691
-25.6049	-10.7262	-53.1534	0.0807	-2.1308	1.2329
-25.6044	-10.7276	-53.1479	0.0790	-2.1645	1.2233
-25.6033	-10.7244	-53.1381	0.0729	-2.2059	1.1742
-25.6025	-10.7257	-53.1320	0.0703	-2.2426	1.1587
-25.6019	-10.7249	-53.1260	0.0669	-2.2706	1.1321
-25.6009	-10.7236	-53.1165	0.0613	-2.3139	1.0877
-25.6003	-10.7243	-53.1109	0.0584	-2.3452	1.0674
-25.5996	-10.7244	-53.1039	0.0544	-2.3810	1.0366
-25.5989	-10.7238	-53.0973	0.0501	-2.4104	1.0022
-25.5981	-10.7192	-53.0913	0.0447	-2.4163	0.9518
-25.5320	-11.5141	-52.2974	-0.0927	0.7038	-1.0519
-25.5332	-11.5226	-52.3079	-0.0916	0.7248	-1.0455
-25.5498	-11.5039	-52.4727	-0.0962	1.0357	-1.1595
-25.5507	-11.5125	-52.4791	-0.0938	1.0532	-1.1405
-25.5570	-11.5502	-52.5328	-0.0809	1.1845	-1.0460
-25.5579	-11.5586	-52.5394	-0.0782	1.1980	-1.0230
-25.5592	-11.5592	-52.5525	-0.0767	1.2304	-1.0160
-25.5618	-11.5643	-52.5764	-0.0726	1.2883	-0.9894
-25.5632	-11.5601	-52.5906	-0.0717	1.3285	-0.9901
-25.5643	-11.5620	-52.6015	-0.0697	1.3560	-0.9761
-25.5667	-11.5715	-52.6221	-0.0639	1.4012	-0.9309
-25.5834	-11.5466	-52.7911	-0.0229	1.9089	-0.6485
-25.5841	-11.5467	-52.7976	-0.0204	1.9245	-0.6273
-25.5849	-11.5444	-52.8069	-0.0169	1.9546	-0.6012
-25.5884	-11.5708	-52.8354	-0.0019	1.9208	-0.4483
-25.5905	-11.5367	-52.8626	0.0070	2.0986	-0.4021
-25.5912	-11.5408	-52.8687	0.0102	2.0908	-0.3693
-25.5919	-11.5441	-52.8762	0.0139	2.0878	-0.3327
-25.5935	-11.5462	-52.8909	0.0209	2.0971	-0.2673
-25.6052	-11.5907	-52.9960	0.0622	1.9295	0.1702
-25.6093	-11.5821	-53.0379	0.0785	1.9194	0.3313
-25.6101	-11.5806	-53.0462	0.0817	1.9135	0.3631
-25.6110	-11.5820	-53.0541	0.0839	1.8968	0.3884
-25.6117	-11.5812	-53.0627	0.0868	1.8863	0.4190
-25.6126	-11.5834	-53.0709	0.0888	1.8655	0.4428
-25.6136	-11.5842	-53.0800	0.0913	1.8471	0.4710
-25.6146	-11.5835	-53.0900	0.0942	1.8308	0.5035
-25.6156	-11.5840	-53.0992	0.0966	1.8117	0.5308
-25.6166	-11.5852	-53.1088	0.0987	1.7890	0.5566
-25.6173	-11.5860	-53.1160	0.1003	1.7719	0.5754
-25.6185	-11.5866	-53.1268	0.1026	1.7476	0.6039
-25.6193	-11.5877	-53.1355	0.1042	1.7258	0.6244
-25.6202	-11.5873	-53.1450	0.1063	1.7056	0.6494
-25.6213	-11.5863	-53.1557	0.1087	1.6837	0.6777
-25.6223	-11.5878	-53.1650	0.1100	1.6585	0.6956
-25.6234	-11.5887	-53.1754	0.1115	1.6318	0.7166
-25.6244	-11.5885	-53.1856	0.1132	1.6080	0.7383
-25.6280	-11.6103	-53.2160	0.1112	1.4965	0.7443
-25.6292	-11.6135	-53.2273	0.1117	1.4658	0.7557
-25.6303	-11.6123	-53.2381	0.1131	1.4433	0.7748
-25.6323	-11.6051	-53.2588	0.1169	1.4054	0.8200
-25.6332	-11.6015	-53.2686	0.1186	1.3869	0.8405
-25.6421	-11.5867	-53.3601	0.1253	1.1845	0.9513
-25.6446	-11.5715	-53.3887	0.1285	1.1251	0.9963
-25.6504	-11.5952	-53.4394	0.1217	1.0137	0.9559
-25.6515	-11.5922	-53.4510	0.1219	0.9912	0.9624
-25.7173	-11.6405	-54.0860	0.0798	0.3472	0.6994
-25.7571	-11.6312	-54.4775	0.0635	0.2078	0.5725
-25.8063	-11.5629	-54.9748	0.0499	0.1109	0.4620
-26.0240	-11.4618	-57.1264	0.0246	0.0217	0.2349
-25.6069	-10.7292	-53.2279	0.1016	-1.7555	1.3991
-25.6061	-10.7292	-53.2199	0.0996	-1.7958	1.3894
-25.6050	-10.7276	-53.2095	0.0962	-1.8458	1.3670
-25.6042	-10.7279	-53.2015	0.0941	-1.8872	1.3557
-25.6033	-10.7284	-53.1937	0.0918	-1.9291	1.3440
-25.6022	-10.7275	-53.1835	0.0880	-1.9804	1.3188
-25.6015	-10.7275	-53.1763	0.0855	-2.0185	1.3026
-25.6008	-10.7277	-53.1691	0.0828	-2.0571	1.2856
-25.5999	-10.7270	-53.1605	0.0791	-2.1014	1.2590
-25.5988	-10.7266	-53.1499	0.0744	-2.1565	1.2252
-25.5980	-10.7260	-53.1426	0.0708	-2.1930	1.1982
-25.5973	-10.7255	-53.1353	0.0671	-2.2295	1.1703
-25.5966	-10.7250	-53.1301	0.0642	-2.2551	1.1488
-25.5958	-10.7256	-53.1225	0.0605	-2.2973	1.1224
-25.5951	-10.7243	-53.1150	0.0559	-2.3300	1.0846
-25.5944	-10.7247	-53.1087	0.0525	-2.3637	1.0591
-25.5934	-10.7226	-53.0990	0.0460	-2.4023	1.0043
-25.5261	-11.4734	-52.2763	-0.0951	0.6438	-1.0951
-25.5275	-11.4840	-52.2872	-0.0938	0.6678	-1.0884
-25.5281	-11.4947	-52.2915	-0.0922	0.6818	-1.0760
-25.5300	-11.5165	-52.3056	-0.0890	0.7173	-1.0529
-25.5540	-11.5531	-52.5370	-0.0759	1.1927	-1.0370
-25.5580	-11.5600	-52.5750	-0.0701	1.2862	-1.0009
-25.5588	-11.5662	-52.5815	-0.0678	1.2986	-0.9806
