-25.8275	-11.4691	-51.2019	-0.2541	0.7106	-0.7339
-25.9067	-11.5355	-51.4085	-0.2051	0.9681	-0.6235
-25.9256	-11.5588	-51.4569	-0.1827	1.0189	-0.5678
-25.9433	-11.5874	-51.5022	-0.1571	1.0537	-0.5023
-25.9696	-11.5536	-51.5752	-0.1407	1.1747	-0.4680
-25.9763	-11.5443	-51.5937	-0.1353	1.2083	-0.4564
-26.0358	-11.5440	-51.7529	-0.0392	1.3624	-0.2120
-26.0402	-11.5408	-51.7649	-0.0313	1.3752	-0.1919
-26.0606	-11.5345	-51.8203	0.0087	1.4097	-0.0880
-26.0733	-11.5207	-51.8552	0.0354	1.4424	-0.0191
-26.0771	-11.5106	-51.8661	0.0446	1.4634	0.0036
-26.0851	-11.4979	-51.8884	0.0640	1.4880	0.0534
-26.0893	-11.5053	-51.8993	0.0718	1.4691	0.0758
-26.0932	-11.5044	-51.9099	0.0803	1.4673	0.0986
-26.1079	-11.4945	-51.9499	0.1138	1.4673	0.1881
-26.1113	-11.4817	-51.9600	0.1253	1.4873	0.2173
-26.1221	-11.5192	-51.9862	0.1329	1.3908	0.2450
-26.1261	-11.5117	-51.9974	0.1428	1.3953	0.2713
-26.2209	-11.5798	-52.2460	0.2236	1.0188	0.5170
-26.2374	-11.5515	-52.2927	0.2456	0.9781	0.5788
-26.2408	-11.5412	-52.3024	0.2518	0.9710	0.5961
-26.2466	-11.5176	-52.3198	0.2653	0.9589	0.6330
-26.2499	-11.5077	-52.3294	0.2712	0.9496	0.6495
-26.3190	-11.5749	-52.5091	0.2525	0.7164	0.6182
-26.3267	-11.5762	-52.5296	0.2520	0.6957	0.6184
-26.3360	-11.5523	-52.5563	0.2591	0.6696	0.6395
-26.3667	-11.5628	-52.6378	0.2520	0.5952	0.6264
-26.4109	-11.5692	-52.7554	0.2418	0.5045	0.6064
-26.7007	-11.6518	-53.5244	0.1676	0.2140	0.4312
-27.0667	-11.7168	-54.4986	0.1156	0.1016	0.3010
-25.8166	-11.4264	-51.1850	-0.2691	0.6819	-0.7771
-25.8185	-11.4434	-51.1885	-0.2626	0.6896	-0.7601
-25.8263	-11.4475	-51.2092	-0.2615	0.7152	-0.7592
-25.8259	-11.4942	-51.2045	-0.2432	0.7144	-0.7101
-25.8763	-11.4953	-51.3399	-0.2342	0.8865	-0.6997
-25.8796	-11.5110	-51.3474	-0.2262	0.8930	-0.6787
-25.9069	-11.5257	-51.4198	-0.2060	0.9875	-0.6322
-25.9296	-11.5020	-51.4829	-0.1995	1.0949	-0.6231
-25.9422	-11.5150	-51.5159	-0.1817	1.1334	-0.5783
-25.9509	-11.5595	-51.5358	-0.1550	1.1189	-0.5057
-25.9550	-11.5678	-51.5460	-0.1478	1.1233	-0.4865
-25.9679	-11.5496	-51.5822	-0.1388	1.1874	-0.4675
-25.9719	-11.5519	-51.5926	-0.1330	1.1974	-0.4527
-25.9813	-11.5525	-51.6183	-0.1199	1.2267	-0.4199
-26.0069	-11.5326	-51.6886	-0.0855	1.3312	-0.3356
-26.0282	-11.5345	-51.7459	-0.0464	1.3761	-0.2342
-26.0320	-11.5302	-51.7565	-0.0396	1.3910	-0.2172
-26.0533	-11.5400	-51.8129	0.0025	1.3986	-0.1045
-26.0573	-11.5358	-51.8243	0.0108	1.4099	-0.0832
-26.0698	-11.5178	-51.8592	0.0376	1.4508	-0.0144
-26.0729	-11.5077	-51.8686	0.0457	1.4720	0.0055
-26.0772	-11.5024	-51.8805	0.0557	1.4823	0.0318
-26.0807	-11.5050	-51.8897	0.0629	1.4749	0.0517
-26.0852	-11.5154	-51.9009	0.0704	1.4499	0.0737
-26.0896	-11.5245	-51.9124	0.0776	1.4274	0.0950
-26.0936	-11.5225	-51.9232	0.0860	1.4273	0.1175
-26.1069	-11.4797	-51.9625	0.1266	1.4935	0.2214
-26.1167	-11.5001	-51.9872	0.1384	1.4302	0.2582
-26.2029	-11.5638	-52.2144	0.2211	1.0742	0.5092
-26.2226	-11.5813	-52.2664	0.2265	0.9960	0.5300
-26.2245	-11.5645	-52.2729	0.2350	0.9989	0.5525
-26.2275	-11.5529	-52.2819	0.2419	0.9947	0.5714
-26.2309	-11.5427	-52.2918	0.2482	0.9877	0.5891
-26.3455	-11.5693	-52.5986	0.2512	0.6322	0.6256
-26.3983	-11.5777	-52.7404	0.2402	0.5180	0.6050
-26.5788	-11.6464	-53.2213	0.1897	0.2937	0.4870
-26.6251	-11.6202	-53.3480	0.1822	0.2511	0.4703
-26.6342	-11.6005	-53.3739	0.1818	0.2404	0.4700
-26.9569	-11.7063	-54.2346	0.1258	0.1218	0.3290
-27.0418	-11.6952	-54.4641	0.1168	0.1021	0.3063
-28.6983	-11.7648	-58.9200	0.0459	0.0162	0.1224
-25.7387	-11.5138	-50.9759	-0.2280	0.5036	-0.6567
-25.8123	-11.4387	-51.1808	-0.2630	0.6784	-0.7653
-25.8173	-11.4474	-51.1939	-0.2601	0.6954	-0.7588
-25.8836	-11.4968	-51.3692	-0.2287	0.9266	-0.6926
-25.8864	-11.5075	-51.3760	-0.2227	0.9328	-0.6767
-25.8913	-11.5128	-51.3888	-0.2180	0.9490	-0.6653
-25.9437	-11.5325	-51.5293	-0.1686	1.1362	-0.5470
-25.9466	-11.5472	-51.5361	-0.1598	1.1312	-0.5226
-25.9642	-11.5616	-51.5826	-0.1343	1.1744	-0.4573
-25.9828	-11.5365	-51.6351	-0.1167	1.2685	-0.4172
-26.0057	-11.5259	-51.6978	-0.0819	1.3527	-0.3298
-26.0630	-11.5133	-51.8544	0.0331	1.4635	-0.0277
-26.0669	-11.5113	-51.8651	0.0417	1.4678	-0.0048
-26.0751	-11.5359	-51.8856	0.0554	1.4149	0.0365
-26.0791	-11.5343	-51.8966	0.0636	1.4158	0.0588
-26.0834	-11.5386	-51.9078	0.0712	1.4044	0.0802
-26.0870	-11.5307	-51.9183	0.0800	1.4165	0.1031
-26.0985	-11.5208	-51.9503	0.1051	1.4206	0.1707
-26.1043	-11.4823	-51.9693	0.1299	1.4869	0.2324
-26.1196	-11.5261	-52.0070	0.1420	1.3680	0.2745
-26.2015	-11.5807	-52.2250	0.2161	1.0503	0.5008
-26.2126	-11.5742	-52.2560	0.2264	1.0170	0.5314
-26.2172	-11.5758	-52.2683	0.2284	1.0004	0.5382
-26.2213	-11.5650	-52.2801	0.2354	0.9927	0.5578
-26.2249	-11.5557	-52.2906	0.2415	0.9848	0.5747
-26.2498	-11.5350	-52.3601	0.2601	0.9032	0.6318
-26.4063	-11.6001	-52.7795	0.2315	0.4955	0.5874
-26.5349	-11.6666	-53.1228	0.1943	0.3326	0.4997
-26.6258	-11.6529	-53.3702	0.1772	0.2515	0.4597
-26.9546	-11.6965	-54.2585	0.1246	0.1187	0.3280
-25.7339	-11.4829	-50.9736	-0.2345	0.4930	-0.6778
-25.8090	-11.4301	-51.1822	-0.2654	0.6767	-0.7768
-25.8123	-11.4433	-51.1900	-0.2606	0.6887	-0.7646
-25.8147	-11.4562	-51.1955	-0.2558	0.6974	-0.7521
-25.8800	-11.5035	-51.3700	-0.2250	0.9248	-0.6868
-25.8984	-11.5296	-51.4178	-0.2040	0.9814	-0.6344
-25.9273	-11.5001	-51.4992	-0.1945	1.1206	-0.6199
-25.9380	-11.5241	-51.5265	-0.1734	1.1401	-0.5638
-25.9417	-11.5336	-51.5356	-0.1657	1.1439	-0.5432
-25.9504	-11.5421	-51.5589	-0.1525	1.1667	-0.5091
-25.9548	-11.5465	-51.5705	-0.1457	1.1770	-0.4914
-25.9585	-11.5562	-51.5798	-0.1378	1.1778	-0.4699
-25.9915	-11.5089	-51.6737	-0.1035	1.3574	-0.3911
-26.0107	-11.5318	-51.7241	-0.0634	1.3683	-0.2827
-26.0239	-11.5227	-51.7611	-0.0391	1.4130	-0.2202
-26.0280	-11.5215	-51.7723	-0.0310	1.4226	-0.1991
-26.0759	-11.5328	-51.9023	0.0671	1.4213	0.0682
-26.0799	-11.5320	-51.9132	0.0751	1.4196	0.0903
-26.0841	-11.5269	-51.9252	0.0847	1.4255	0.1159
-26.2015	-11.5700	-52.2427	0.2243	1.0402	0.5274
-26.2079	-11.5735	-52.2598	0.2268	1.0160	0.5361
-26.2157	-11.5582	-52.2824	0.2381	0.9973	0.5684
-26.2337	-11.5588	-52.3313	0.2458	0.9336	0.5945
-26.2384	-11.5536	-52.3449	0.2497	0.9186	0.6064
-26.2429	-11.5474	-52.3578	0.2537	0.9045	0.6187
-26.3122	-11.5921	-52.5433	0.2443	0.6876	0.6106
-26.3259	-11.5799	-52.5817	0.2472	0.6515	0.6215
-26.6937	-11.6488	-53.5805	0.1621	0.2030	0.4257
-25.8120	-11.4452	-51.1986	-0.2590	0.6979	-0.7663
-25.8815	-11.4928	-51.3854	-0.2267	0.9497	-0.6984
-25.8873	-11.4932	-51.4013	-0.2236	0.9735	-0.6919
-25.9726	-11.5388	-51.6321	-0.1181	1.2634	-0.4266
-25.9770	-11.5391	-51.6443	-0.1113	1.2774	-0.4090
-25.9824	-11.5286	-51.6598	-0.1059	1.3108	-0.3969
-25.9920	-11.5223	-51.6867	-0.0912	1.3505	-0.3598
-26.0170	-11.5131	-51.7565	-0.0449	1.4308	-0.2396
-26.0214	-11.5211	-51.7677	-0.0352	1.4227	-0.2122
-26.0411	-11.5053	-51.8235	0.0063	1.4823	-0.1033
-26.0764	-11.5413	-51.9176	0.0759	1.4033	0.0939
-26.0804	-11.5231	-51.9301	0.0880	1.4349	0.1246
-26.0837	-11.5200	-51.9392	0.0953	1.4368	0.1444
-26.0934	-11.4893	-51.9688	0.1252	1.4819	0.2228
-26.0979	-11.4962	-51.9805	0.1317	1.4578	0.2426
-26.1025	-11.5090	-51.9921	0.1357	1.4220	0.2566
-26.1063	-11.5067	-52.0027	0.1437	1.4171	0.2788
-26.1347	-11.5353	-52.0789	0.1777	1.2876	0.3828
-26.1633	-11.5779	-52.1541	0.1931	1.1452	0.4366
-26.1659	-11.5679	-52.1619	0.2000	1.1467	0.4555
-26.1886	-11.6068	-52.2213	0.2029	1.0400	0.4722
-26.1995	-11.5798	-52.2538	0.2218	1.0226	0.5256
-26.2032	-11.5710	-52.2646	0.2279	1.0153	0.5430
-26.2076	-11.5655	-52.2771	0.2329	1.0030	0.5576
-26.2129	-11.5667	-52.2915	0.2352	0.9837	0.5654
-26.2172	-11.5571	-52.3041	0.2415	0.9731	0.5835
-26.2247	-11.5402	-52.3261	0.2522	0.9527	0.6146
-26.2322	-11.5457	-52.3464	0.2523	0.9232	0.6174
-26.3569	-11.5749	-52.6873	0.2424	0.5621	0.6197
-26.4074	-11.6166	-52.8231	0.2234	0.4724	0.5750
-26.5422	-11.6561	-53.1907	0.1889	0.3075	0.4938
-26.5821	-11.6570	-53.3001	0.1805	0.2727	0.4738
-26.9207	-11.7016	-54.2284	0.1246	0.1223	0.3325
-25.7382	-11.4837	-51.0007	-0.2332	0.5118	-0.6873
-25.7446	-11.4935	-51.0177	-0.2318	0.5279	-0.6849
-25.8026	-11.4281	-51.1834	-0.2628	0.6743	-0.7828
-25.8065	-11.4394	-51.1934	-0.2589	0.6886	-0.7732
-25.8090	-11.4544	-51.1992	-0.2532	0.6982	-0.7585
-25.8135	-11.4641	-51.2109	-0.2497	0.7136	-0.7500
-25.8153	-11.4789	-51.2146	-0.2440	0.7196	-0.7348
-25.8690	-11.4907	-51.3622	-0.2295	0.9142	-0.7110
-25.8741	-11.4948	-51.3759	-0.2256	0.9330	-0.7017
-25.9086	-11.5183	-51.4696	-0.1938	1.0599	-0.6245
-25.9446	-11.5577	-51.5662	-0.1424	1.1582	-0.4906
-25.9490	-11.5558	-51.5787	-0.1376	1.1759	-0.4789
-26.0454	-11.5105	-51.8501	0.0269	1.4782	-0.0490
-26.0490	-11.5196	-51.8592	0.0338	1.4592	-0.0284
-26.0534	-11.5227	-51.8714	0.0430	1.4529	-0.0024
-26.0572	-11.5315	-51.8809	0.0495	1.4338	0.0173
-26.0689	-11.5308	-51.9138	0.0737	1.4283	0.0847
-26.0722	-11.5290	-51.9232	0.0808	1.4286	0.1042
-26.0883	-11.5180	-51.9686	0.1155	1.4264	0.2006
-26.0960	-11.5160	-51.9903	0.1310	1.4140	0.2444
-26.0989	-11.5163	-51.9985	0.1364	1.4065	0.2600
-26.1085	-11.5297	-52.0238	0.1478	1.3590	0.2958
-26.1423	-11.5553	-52.1156	0.1856	1.2212	0.4120
-26.1618	-11.5624	-52.1692	0.2037	1.1479	0.4681
-26.1756	-11.5561	-52.2081	0.2188	1.1045	0.5138
-26.2305	-11.5324	-52.3628	0.2585	0.9108	0.6401
-26.3173	-11.5808	-52.6002	0.2443	0.6393	0.6236
-26.3298	-11.5664	-52.6360	0.2467	0.6066	0.6330
-26.3382	-11.5638	-52.6594	0.2460	0.5861	0.6327
-26.5855	-11.6025	-53.3428	0.1811	0.2511	0.4811
-26.8723	-11.6941	-54.1312	0.1284	0.1313	0.3451
-26.9542	-11.6823	-54.3595	0.1190	0.1093	0.3208
-28.5950	-11.8351	-58.9007	0.0450	0.0176	0.1234
-25.8097	-11.4551	-51.2103	-0.2511	0.7098	-0.7612
-25.8149	-11.4624	-51.2241	-0.2484	0.7276	-0.7551
-25.8661	-11.4791	-51.3658	-0.2326	0.9204	-0.7277
-25.8681	-11.4922	-51.3703	-0.2259	0.9236	-0.7093
-25.9167	-11.4978	-51.5056	-0.1907	1.1281	-0.6287
-25.9447	-11.5404	-51.5805	-0.1420	1.1945	-0.4985
-25.9467	-11.5586	-51.5845	-0.1334	1.1788	-0.4731
-25.9733	-11.5279	-51.6618	-0.1044	1.3128	-0.4037
-25.9972	-11.5421	-51.7274	-0.0596	1.3546	-0.2824
-26.0020	-11.5369	-51.7414	-0.0514	1.3750	-0.2612
-26.0062	-11.5342	-51.7534	-0.0438	1.3890	-0.2412
-26.0182	-11.4267	-51.7960	-0.0282	1.6630	-0.2212
-26.0340	-11.5157	-51.8327	0.0125	1.4656	-0.0905
-26.0457	-11.5237	-51.8648	0.0371	1.4529	-0.0209
-26.0495	-11.5226	-51.8756	0.0453	1.4549	0.0019
-26.0536	-11.5134	-51.8877	0.0553	1.4736	0.0283
-26.0621	-11.5413	-51.9090	0.0679	1.4111	0.0687
-26.0655	-11.5325	-51.9197	0.0767	1.4256	0.0921
-26.0687	-11.5206	-51.9297	0.0860	1.4463	0.1163
-26.0763	-11.5231	-51.9505	0.1004	1.4308	0.1578
-26.0863	-11.4970	-51.9809	0.1291	1.4637	0.2352
-26.1019	-11.5350	-52.0214	0.1434	1.3558	0.2844
-26.1187	-11.5350	-52.0684	0.1699	1.3081	0.3625
-26.1273	-11.5385	-52.0921	0.1805	1.2759	0.3948
-26.1567	-11.5538	-52.1733	0.2075	1.1560	0.4808
-26.1946	-11.5627	-52.2789	0.2321	1.0104	0.5620
-26.2013	-11.5734	-52.2966	0.2309	0.9809	0.5611
-26.2075	-11.5722	-52.3142	0.2343	0.9593	0.5726
-26.2127	-11.5693	-52.3289	0.2377	0.9425	0.5836
-26.2225	-11.5634	-52.3568	0.2437	0.9101	0.6030
-26.2257	-11.5531	-52.3671	0.2490	0.9011	0.6187
-26.2380	-11.5296	-52.4035	0.2615	0.8619	0.6569
-26.2751	-11.5601	-52.5046	0.2520	0.7372	0.6413
-26.3074	-11.5855	-52.5931	0.2422	0.6485	0.6214
-26.6048	-11.6264	-53.4224	0.1722	0.2357	0.4616
-26.6602	-11.6361	-53.5767	0.1608	0.2032	0.4323
-25.7143	-11.4966	-50.9468	-0.2227	0.4729	-0.6661
-25.8018	-11.3748	-51.2028	-0.2818	0.6790	-0.8497
-25.8020	-11.4150	-51.1998	-0.2652	0.6874	-0.8040
-25.8492	-11.4709	-51.3280	-0.2397	0.8650	-0.7477
-25.8565	-11.4703	-51.3487	-0.2380	0.8953	-0.7454
-25.8641	-11.4857	-51.3686	-0.2284	0.9215	-0.7207
-25.8977	-11.4185	-51.4689	-0.2445	1.1184	-0.7829
-25.9020	-11.4248	-51.4803	-0.2376	1.1369	-0.7652
-25.9236	-11.5191	-51.5330	-0.1707	1.1502	-0.5784
-25.9351	-11.5345	-51.5644	-0.1515	1.1792	-0.5268
-25.9387	-11.5434	-51.5738	-0.1438	1.1820	-0.5057
-25.9447	-11.5382	-51.5908	-0.1382	1.2105	-0.4923
-25.9514	-11.5616	-51.6077	-0.1218	1.2031	-0.4455
-26.0241	-11.5356	-51.8150	-0.0008	1.4211	-0.1243
-26.0290	-11.5286	-51.8293	0.0094	1.4397	-0.0973
-26.0328	-11.5212	-51.8405	0.0176	1.4578	-0.0756
-26.0362	-11.5266	-51.8497	0.0246	1.4480	-0.0553
-26.0405	-11.5279	-51.8619	0.0337	1.4465	-0.0297
-26.0436	-11.5189	-51.8714	0.0412	1.4657	-0.0100
-26.0473	-11.5128	-51.8820	0.0498	1.4784	0.0131
-26.0510	-11.5135	-51.8926	0.0580	1.4755	0.0362
-26.0633	-11.5304	-51.9258	0.0803	1.4309	0.1027
-26.0670	-11.5192	-51.9372	0.0905	1.4491	0.1299
-26.0796	-11.5387	-51.9710	0.1095	1.3915	0.1884
-26.0993	-11.4974	-52.0302	0.1612	1.4192	0.3314
-26.1228	-11.5563	-52.0914	0.1720	1.2547	0.3758
-26.1424	-11.5993	-52.1429	0.1775	1.1444	0.4007
-26.1566	-11.5948	-52.1831	0.1930	1.1049	0.4478
-26.1600	-11.5590	-52.1960	0.2117	1.1248	0.4986
-26.1642	-11.5549	-52.2082	0.2171	1.1128	0.5150
-26.1876	-11.5700	-52.2728	0.2267	1.0164	0.5503
-26.1897	-11.5550	-52.2800	0.2346	1.0171	0.5724
-26.2111	-11.5756	-52.3386	0.2355	0.9300	0.5825
-26.2212	-11.5451	-52.3697	0.2516	0.9036	0.6301
-26.3132	-11.5829	-52.6258	0.2408	0.6206	0.6240
-26.3303	-11.5793	-52.6744	0.2391	0.5790	0.6229
-26.3366	-11.5739	-52.6924	0.2393	0.5638	0.6248
-26.3533	-11.5420	-52.7422	0.2431	0.5201	0.6392
-26.4621	-11.6094	-53.0429	0.2039	0.3592	0.5429
-26.5072	-11.6299	-53.1684	0.1910	0.3131	0.5105
-26.5815	-11.6249	-53.3780	0.1750	0.2471	0.4713
-26.6633	-11.6373	-53.6070	0.1581	0.1978	0.4280
-26.9253	-11.6820	-54.3410	0.1186	0.1111	0.3243
-27.0467	-11.6967	-54.6814	0.1060	0.0890	0.2906
-25.7944	-11.4325	-51.1849	-0.2569	0.6723	-0.7834
-25.7990	-11.4448	-51.1969	-0.2527	0.6892	-0.7732
-25.8080	-11.4635	-51.2209	-0.2460	0.7211	-0.7571
-25.8136	-11.4895	-51.2346	-0.2360	0.7399	-0.7303
-25.8517	-11.4590	-51.3448	-0.2432	0.8900	-0.7636
-25.8602	-11.4761	-51.3675	-0.2326	0.9211	-0.7363
-25.8689	-11.4861	-51.3911	-0.2244	0.9539	-0.7159
-25.9103	-11.4999	-51.5071	-0.1890	1.1272	-0.6308
-25.9213	-11.5229	-51.5364	-0.1679	1.1512	-0.5733
-25.9257	-11.5251	-51.5489	-0.1620	1.1671	-0.5581
-25.9297	-11.5264	-51.5599	-0.1570	1.1815	-0.5450
-25.9335	-11.5379	-51.5698	-0.1481	1.1827	-0.5199
-25.9375	-11.5441	-51.5804	-0.1410	1.1900	-0.5006
-25.9427	-11.5390	-51.5956	-0.1361	1.2159	-0.4888
-25.9572	-11.5273	-51.6378	-0.1191	1.2854	-0.4469
-25.9608	-11.5413	-51.6469	-0.1093	1.2765	-0.4183
-25.9903	-11.5398	-51.7307	-0.0595	1.3639	-0.2852
-26.0225	-11.5075	-51.8247	0.0037	1.4857	-0.1168
-26.0263	-11.5143	-51.8348	0.0119	1.4741	-0.0928
-26.0376	-11.5153	-51.8666	0.0365	1.4765	-0.0234
-26.0409	-11.5173	-51.8757	0.0434	1.4721	-0.0034
-26.0490	-11.5227	-51.8986	0.0602	1.4579	0.0453
-26.0527	-11.5201	-51.9093	0.0685	1.4609	0.0685
-26.0558	-11.5155	-51.9183	0.0759	1.4681	0.0888
-26.0599	-11.5134	-51.9302	0.0851	1.4680	0.1150
-26.0631	-11.5115	-51.9393	0.0923	1.4680	0.1353
-26.0674	-11.5120	-51.9515	0.1011	1.4605	0.1608
-26.0714	-11.5216	-51.9619	0.1063	1.4344	0.1777
-26.0758	-11.5216	-51.9743	0.1148	1.4262	0.2026
-26.0782	-11.5059	-51.9829	0.1251	1.4516	0.2295
-26.0810	-11.5002	-51.9913	0.1328	1.4563	0.2508
-26.1536	-11.5702	-52.1913	0.2044	1.1231	0.4820
-26.1780	-11.5637	-52.2607	0.2258	1.0398	0.5497
-26.1833	-11.5636	-52.2759	0.2291	1.0199	0.5607
-26.1875	-11.5616	-52.2882	0.2323	1.0051	0.5713
-26.2104	-11.5606	-52.3529	0.2424	0.9217	0.6070
-26.2273	-11.5575	-52.4011	0.2481	0.8622	0.6283
-26.2305	-11.5465	-52.4113	0.2531	0.8527	0.6433
-26.2479	-11.5624	-52.4593	0.2489	0.7917	0.6367
-26.4583	-11.6093	-53.0516	0.2024	0.3560	0.5426
-26.7158	-11.6688	-53.7764	0.1456	0.1737	0.3974
-27.0389	-11.6904	-54.6899	0.1053	0.0880	0.2908
-25.7193	-11.4917	-50.9741	-0.2241	0.4895	-0.6790
-25.7958	-11.4525	-51.1953	-0.2489	0.6875	-0.7665
-25.8049	-11.4684	-51.2198	-0.2434	0.7190	-0.7534
-25.8144	-11.4883	-51.2450	-0.2355	0.7514	-0.7339
-25.8481	-11.4682	-51.3427	-0.2385	0.8842	-0.7539
-25.8535	-11.4950	-51.3557	-0.2250	0.8982	-0.7167
-25.8713	-11.4729	-51.4082	-0.2275	0.9841	-0.7311
-25.8822	-11.4726	-51.4394	-0.2214	1.0348	-0.7180
-25.8889	-11.4689	-51.4588	-0.2187	1.0692	-0.7133
-25.9096	-11.5502	-51.5109	-0.1657	1.0907	-0.5644
-25.9451	-11.5324	-51.6135	-0.1304	1.2477	-0.4775
-26.0199	-11.5191	-51.8281	0.0057	1.4644	-0.1089
-26.0231	-11.5167	-51.8376	0.0129	1.4722	-0.0891
-26.0311	-11.5196	-51.8601	0.0301	1.4697	-0.0400
-26.0381	-11.5177	-51.8799	0.0453	1.4742	0.0030
-26.0615	-11.5273	-51.9462	0.0927	1.4352	0.1412
-26.0647	-11.5170	-51.9560	0.1019	1.4511	0.1658
-26.0681	-11.5124	-51.9662	0.1102	1.4542	0.1894
-26.0818	-11.5018	-52.0062	0.1412	1.4438	0.2783
-26.0923	-11.5278	-52.0339	0.1496	1.3680	0.3089
-26.0964	-11.5330	-52.0451	0.1543	1.3478	0.3238
-26.1014	-11.5361	-52.0591	0.1609	1.3279	0.3443
-26.1177	-11.5371	-52.1058	0.1840	1.2729	0.4149
-26.1224	-11.5395	-52.1190	0.1890	1.2533	0.4308
-26.1619	-11.5303	-52.2325	0.2329	1.1086	0.5684
-26.1680	-11.5351	-52.2494	0.2349	1.0805	0.5763
-26.2127	-11.5640	-52.3746	0.2424	0.8956	0.6136
-26.2230	-11.5560	-52.4048	0.2480	0.8607	0.6325
-26.2291	-11.5579	-52.4222	0.2482	0.8388	0.6352
-26.2431	-11.5347	-52.4640	0.2584	0.7927	0.6681
-26.2631	-11.5537	-52.5193	0.2514	0.7280	0.6536
-26.5566	-11.6291	-53.3505	0.1754	0.2561	0.4778
-26.5702	-11.5854	-53.3929	0.1756	0.2362	0.4800
-26.8413	-11.6913	-54.1570	0.1251	0.1290	0.3455
-26.9252	-11.6819	-54.3966	0.1154	0.1069	0.3198
-25.7969	-11.4269	-51.2105	-0.2582	0.6991	-0.7994
-25.7960	-11.4509	-51.2059	-0.2488	0.6984	-0.7724
-25.7981	-11.4672	-51.2105	-0.2427	0.7065	-0.7558
-25.8448	-11.4528	-51.3456	-0.2447	0.8894	-0.7773
-25.8837	-11.4850	-51.4545	-0.2113	1.0521	-0.6955
-25.8890	-11.5035	-51.4685	-0.1988	1.0631	-0.6608
-25.9075	-11.5157	-51.5204	-0.1770	1.1338	-0.6046
-25.9105	-11.5279	-51.5278	-0.1690	1.1337	-0.5815
-25.9491	-11.5112	-51.6400	-0.1248	1.3133	-0.4704
-25.9532	-11.5106	-51.6523	-0.1181	1.3305	-0.4528
-26.0266	-11.5135	-51.8630	0.0315	1.4873	-0.0376
-26.0530	-11.5161	-51.9388	0.0886	1.4667	0.1280
-26.0561	-11.5131	-51.9478	0.0958	1.4687	0.1485
-26.0606	-11.5174	-51.9604	0.1038	1.4523	0.1729
-26.0641	-11.5138	-51.9707	0.1120	1.4531	0.1962
-26.0676	-11.5172	-51.9806	0.1179	1.4392	0.2144
-26.0751	-11.5118	-52.0029	0.1345	1.4319	0.2628
-26.0774	-11.4958	-52.0107	0.1452	1.4566	0.2912
-26.0846	-11.4978	-52.0314	0.1581	1.4310	0.3303
-26.0932	-11.5011	-52.0558	0.1717	1.3966	0.3724
-26.1058	-11.5405	-52.0886	0.1734	1.2930	0.3862
-26.1138	-11.5449	-52.1113	0.1823	1.2598	0.4145
-26.1186	-11.5404	-52.1256	0.1904	1.2484	0.4389
-26.1208	-11.5334	-52.1323	0.1963	1.2491	0.4557
-26.1424	-11.5809	-52.1906	0.1978	1.1206	0.4710
-26.1632	-11.5878	-52.2498	0.2113	1.0420	0.5166
-26.1949	-11.5615	-52.3433	0.2390	0.9396	0.6050
-26.2088	-11.5433	-52.3846	0.2508	0.8933	0.6427
-26.2761	-11.5837	-52.5748	0.2398	0.6727	0.6301
-26.2817	-11.5768	-52.5920	0.2412	0.6563	0.6359
-26.3510	-11.6129	-52.7876	0.2214	0.5029	0.5921
-26.4600	-11.6267	-53.0999	0.1946	0.3405	0.5293
-26.5622	-11.6118	-53.3949	0.1726	0.2413	0.4749
-26.8319	-11.6828	-54.1638	0.1244	0.1275	0.3463
-26.9232	-11.6795	-54.4262	0.1138	0.1045	0.3177
-25.7130	-11.4869	-50.9736	-0.2229	0.4857	-0.6850
-25.7849	-11.4107	-51.1880	-0.2620	0.6658	-0.8136
-25.7836	-11.4381	-51.1818	-0.2515	0.6658	-0.7831
-25.7909	-11.4622	-51.2007	-0.2434	0.6928	-0.7620
-25.7993	-11.4599	-51.2252	-0.2446	0.7220	-0.7682
-25.8057	-11.4859	-51.2413	-0.2346	0.7444	-0.7413
-25.8467	-11.4638	-51.3617	-0.2372	0.9114	-0.7631
-25.8847	-11.4896	-51.4694	-0.2048	1.0729	-0.6837
-25.9074	-11.5019	-51.5341	-0.1783	1.1673	-0.6153
-25.9089	-11.5186	-51.5373	-0.1695	1.1564	-0.5892
-25.9497	-11.5225	-51.6548	-0.1127	1.3169	-0.4391
-25.9725	-11.4847	-51.7239	-0.0808	1.4672	-0.3600
-25.9931	-11.4092	-51.7902	-0.0445	1.7225	-0.2773
-26.0152	-11.5147	-51.8455	0.0170	1.4859	-0.0793
-26.0227	-11.5214	-51.8665	0.0330	1.4742	-0.0321
-26.0268	-11.5334	-51.8771	0.0403	1.4487	-0.0087
-26.0298	-11.5423	-51.8852	0.0456	1.4299	0.0081
-26.0413	-11.5217	-51.9201	0.0729	1.4664	0.0840
-26.0440	-11.5141	-51.9289	0.0806	1.4800	0.1051
-26.0598	-11.5204	-51.9741	0.1116	1.4421	0.1978
-26.0632	-11.5218	-51.9838	0.1178	1.4324	0.2166
-26.0675	-11.5266	-51.9957	0.1242	1.4138	0.2368
-26.0730	-11.5003	-52.0142	0.1448	1.4494	0.2933
-26.1570	-11.5822	-52.2507	0.2129	1.0488	0.5246
-26.1592	-11.5676	-52.2582	0.2207	1.0505	0.5470
-26.1629	-11.5572	-52.2697	0.2276	1.0431	0.5678
-26.1801	-11.5650	-52.3189	0.2333	0.9727	0.5902
-26.1834	-11.5554	-52.3292	0.2388	0.9643	0.6069
-26.1889	-11.5547	-52.3452	0.2412	0.9434	0.6156
-26.3333	-11.6090	-52.7588	0.2233	0.5234	0.6003
-26.3309	-11.5797	-52.7548	0.2300	0.5222	0.6198
-26.4394	-11.6270	-53.0643	0.1967	0.3560	0.5378
-26.6169	-11.6637	-53.5751	0.1560	0.2095	0.4329
-26.8705	-11.6777	-54.3078	0.1179	0.1138	0.3311
-25.7857	-11.4329	-51.1971	-0.2530	0.6815	-0.7938
-25.7871	-11.4506	-51.1998	-0.2465	0.6886	-0.7757
-25.8134	-11.4599	-51.2753	-0.2434	0.7855	-0.7749
-25.8394	-11.4621	-51.3510	-0.2382	0.8941	-0.7694
-25.8421	-11.4751	-51.3576	-0.2316	0.9020	-0.7508
-25.8693	-11.4580	-51.4382	-0.2276	1.0370	-0.7509
-25.9021	-11.5273	-51.5276	-0.1690	1.1336	-0.5890
-25.9063	-11.5264	-51.5400	-0.1649	1.1528	-0.5788
-25.9973	-11.5333	-51.8044	-0.0133	1.4338	-0.1623
-26.0052	-11.5186	-51.8289	0.0035	1.4747	-0.1170
-26.0092	-11.5054	-51.8417	0.0129	1.5077	-0.0927
-26.0230	-11.5214	-51.8806	0.0425	1.4765	-0.0039
-26.0311	-11.5429	-51.9025	0.0566	1.4289	0.0412
-26.0349	-11.5322	-51.9145	0.0662	1.4483	0.0676
-26.0378	-11.5236	-51.9234	0.0738	1.4639	0.0884
-26.0414	-11.5136	-51.9348	0.0838	1.4812	0.1160
-26.0490	-11.5252	-51.9559	0.0966	1.4461	0.1562
-26.0524	-11.5208	-51.9663	0.1048	1.4493	0.1799
-26.0557	-11.5151	-51.9763	0.1132	1.4542	0.2038
-26.0589	-11.5103	-51.9864	0.1215	1.4566	0.2276
-26.0625	-11.5083	-51.9969	0.1292	1.4522	0.2506
-26.0661	-11.5071	-52.0075	0.1367	1.4452	0.2730
-26.0695	-11.5037	-52.0178	0.1446	1.4421	0.2963
-26.0994	-11.5243	-52.1032	0.1848	1.3074	0.4246
-26.1085	-11.5324	-52.1288	0.1929	1.2626	0.4523
-26.1311	-11.5646	-52.1921	0.2027	1.1419	0.4912
-26.1547	-11.5595	-52.2611	0.2235	1.0554	0.5591
-26.1587	-11.5544	-52.2734	0.2283	1.0427	0.5743
-26.1614	-11.5466	-52.2821	0.2335	1.0362	0.5900
-26.1806	-11.5617	-52.3365	0.2359	0.9538	0.6041
-26.1890	-11.5500	-52.3622	0.2438	0.9254	0.6295
-26.2145	-11.5562	-52.4362	0.2465	0.8298	0.6457
-26.2853	-11.5451	-52.6434	0.2456	0.6095	0.6621
-26.8684	-11.6701	-54.3311	0.1166	0.1112	0.3297
-25.7846	-11.4368	-51.2007	-0.2504	0.6861	-0.7907
-25.7881	-11.4457	-51.2102	-0.2473	0.6995	-0.7831
-25.7915	-11.4608	-51.2188	-0.2419	0.7125	-0.7682
-25.8094	-11.4723	-51.2702	-0.2372	0.7784	-0.7602
-25.8359	-11.4531	-51.3494	-0.2414	0.8919	-0.7823
-25.8395	-11.4588	-51.3596	-0.2378	0.9068	-0.7730
-25.8641	-11.4796	-51.4299	-0.2175	1.0123	-0.7227
-25.8749	-11.4778	-51.4616	-0.2114	1.0652	-0.7092
-25.8963	-11.4940	-51.5228	-0.1853	1.1545	-0.6408
-25.9332	-11.5139	-51.6293	-0.1300	1.2947	-0.4911
-25.9993	-11.5049	-51.8240	-0.0022	1.5022	-0.1349
-26.0169	-11.4984	-51.8761	0.0390	1.5285	-0.0167
-26.0202	-11.5053	-51.8851	0.0456	1.5122	0.0042
-26.0283	-11.5326	-51.9068	0.0593	1.4493	0.0496
-26.0319	-11.5209	-51.9185	0.0691	1.4713	0.0766
-26.0352	-11.5131	-51.9287	0.0778	1.4849	0.1008
-26.0380	-11.5073	-51.9374	0.0853	1.4941	0.1220
-26.0414	-11.5032	-51.9476	0.0937	1.4983	0.1462
-26.0454	-11.5027	-51.9594	0.1026	1.4926	0.1726
-26.0528	-11.5054	-51.9809	0.1173	1.4719	0.2175
-26.0607	-11.5173	-52.0031	0.1287	1.4295	0.2546
-26.0641	-11.5131	-52.0134	0.1367	1.4288	0.2780
-26.0672	-11.5067	-52.0231	0.1451	1.4319	0.3022
-26.0723	-11.5196	-52.0370	0.1491	1.3934	0.3173
-26.1018	-11.5683	-52.1195	0.1726	1.2269	0.4003
-26.1041	-11.5502	-52.1278	0.1831	1.2412	0.4300
-26.1138	-11.5288	-52.1580	0.2045	1.2294	0.4936
-26.1157	-11.5147	-52.1650	0.2137	1.2370	0.5199
-26.1516	-11.5823	-52.2643	0.2129	1.0356	0.5349
-26.1524	-11.5373	-52.2703	0.2334	1.0611	0.5927
-26.1826	-11.5543	-52.3578	0.2398	0.9312	0.6225
-26.5154	-11.6462	-53.3260	0.1725	0.2681	0.4825
-26.8674	-11.6649	-54.3562	0.1151	0.1088	0.3279
-27.3365	-11.7029	-55.7281	0.0773	0.0496	0.2222
-26.3683	-10.7575	-52.9724	0.2775	-0.0655	0.8191
-25.7835	-11.4377	-51.2045	-0.2488	0.6902	-0.7908
-25.7887	-11.4634	-51.2177	-0.2396	0.7109	-0.7654
-25.8254	-11.4609	-51.3261	-0.2384	0.8551	-0.7741
-25.8323	-11.4580	-51.3468	-0.2382	0.8862	-0.7762
-25.8410	-11.4504	-51.3729	-0.2393	0.9281	-0.7830
-25.8484	-11.4432	-51.3954	-0.2402	0.9666	-0.7890
-25.8519	-11.4516	-51.4048	-0.2347	0.9801	-0.7738
-25.8565	-11.4577	-51.4179	-0.2295	1.0002	-0.7603
-25.8633	-11.4506	-51.4386	-0.2294	1.0384	-0.7631
-25.8737	-11.4993	-51.4653	-0.1993	1.0572	-0.6762
-25.8776	-11.5022	-51.4764	-0.1950	1.0727	-0.6651
-25.8955	-11.4887	-51.5303	-0.1846	1.1701	-0.6427
-25.9051	-11.5119	-51.5567	-0.1640	1.1896	-0.5836
-26.0069	-11.4879	-51.8591	0.0241	1.5514	-0.0606
-26.0105	-11.4992	-51.8689	0.0318	1.5260	-0.0356
-26.0144	-11.5143	-51.8791	0.0391	1.4920	-0.0114
-26.0178	-11.5262	-51.8884	0.0452	1.4656	0.0089
-26.0256	-11.5384	-51.9103	0.0596	1.4366	0.0540
-26.0352	-11.5100	-51.9407	0.0857	1.4870	0.1263
-26.0386	-11.5068	-51.9511	0.0938	1.4887	0.1503
-26.0419	-11.4973	-51.9619	0.1040	1.5033	0.1789
-26.0455	-11.4916	-51.9729	0.1136	1.5084	0.2068
-26.0491	-11.4980	-51.9830	0.1190	1.4867	0.2248
-26.0527	-11.5042	-51.9932	0.1243	1.4653	0.2421
-26.0570	-11.5057	-52.0057	0.1322	1.4513	0.2666
-26.0599	-11.5028	-52.0146	0.1391	1.4490	0.2869
-26.0632	-11.4941	-52.0250	0.1489	1.4558	0.3154
-26.0665	-11.4905	-52.0350	0.1568	1.4520	0.3389
-26.0735	-11.4918	-52.0557	0.1691	1.4249	0.3775
-26.0790	-11.5015	-52.0710	0.1739	1.3880	0.3947
-26.0946	-11.5368	-52.1142	0.1808	1.2779	0.4245
-26.1088	-11.5196	-52.1578	0.2066	1.2429	0.5036
-26.1113	-11.5058	-52.1663	0.2165	1.2477	0.5322
-26.1137	-11.4952	-52.1743	0.2247	1.2483	0.5564
-26.1437	-11.5645	-52.2571	0.2168	1.0604	0.5491
-26.1482	-11.5585	-52.2709	0.2223	1.0465	0.5667
-26.1628	-11.5563	-52.3141	0.2313	0.9899	0.5977
-26.1714	-11.5463	-52.3402	0.2392	0.9600	0.6237
-26.2034	-11.5827	-52.4317	0.2332	0.8319	0.6169
-26.8552	-11.6524	-54.3499	0.1150	0.1081	0.3301
-26.3629	-10.7568	-52.9749	0.2756	-0.0662	0.8189
-25.7130	-11.4971	-50.9990	-0.2181	0.5057	-0.6887
-25.7805	-11.4243	-51.2050	-0.2533	0.6868	-0.8083
-25.8005	-11.4730	-51.2604	-0.2355	0.7646	-0.7622
-25.8033	-11.4866	-51.2675	-0.2300	0.7743	-0.7469
-25.8358	-11.4408	-51.3677	-0.2443	0.9211	-0.8017
-25.8447	-11.4527	-51.3934	-0.2356	0.9609	-0.7793
-25.8490	-11.4606	-51.4053	-0.2300	0.9784	-0.7642
-25.8587	-11.4615	-51.4339	-0.2246	1.0260	-0.7524
-25.8621	-11.4727	-51.4432	-0.2172	1.0365	-0.7313
-25.9005	-11.5234	-51.5530	-0.1607	1.1741	-0.5758
-26.0039	-11.4877	-51.8630	0.0268	1.5589	-0.0528
-26.0069	-11.4879	-51.8719	0.0341	1.5594	-0.0312
-26.0189	-11.5354	-51.9037	0.0549	1.4498	0.0399
-26.0218	-11.5311	-51.9129	0.0619	1.4573	0.0600
-26.0252	-11.5254	-51.9233	0.0701	1.4665	0.0835
-26.0328	-11.5243	-51.9461	0.0864	1.4599	0.1323
-26.0454	-11.4984	-51.9854	0.1204	1.4903	0.2305
-26.0558	-11.5012	-52.0165	0.1407	1.4566	0.2935
-26.0590	-11.4916	-52.0266	0.1508	1.4656	0.3228
-26.0793	-11.5447	-52.0823	0.1625	1.3087	0.3707
-26.0846	-11.5554	-52.0976	0.1658	1.2756	0.3834
-26.0930	-11.5548	-52.1223	0.1770	1.2477	0.4189
-26.0966	-11.5505	-52.1334	0.1834	1.2400	0.4386
-26.1000	-11.5484	-52.1437	0.1884	1.2298	0.4543
-26.1388	-11.5363	-52.2601	0.2297	1.0817	0.5894
-26.1666	-11.5475	-52.3419	0.2388	0.9598	0.6268
-26.2025	-11.5727	-52.4465	0.2373	0.8189	0.6344
-26.2076	-11.5249	-52.4658	0.2554	0.8037	0.6895
-26.5757	-11.6200	-53.5511	0.1572	0.2080	0.4487
-26.8210	-11.6724	-54.2752	0.1171	0.1165	0.3376
-26.8354	-11.6410	-54.3207	0.1160	0.1090	0.3349
-26.3566	-10.7563	-52.9758	0.2740	-0.0688	0.8192
-25.7827	-11.4519	-51.2182	-0.2430	0.7083	-0.7846
-25.7976	-11.4721	-51.2609	-0.2356	0.7648	-0.7672
-25.8334	-11.4404	-51.3701	-0.2443	0.9251	-0.8068
-25.8376	-11.4456	-51.3825	-0.2405	0.9449	-0.7973
-25.8417	-11.4511	-51.3944	-0.2363	0.9634	-0.7864
-25.8453	-11.4588	-51.4045	-0.2311	0.9781	-0.7722
-25.8585	-11.4701	-51.4427	-0.2188	1.0379	-0.7405
-25.9019	-11.4929	-51.5706	-0.1677	1.2367	-0.6051
-25.9671	-11.3753	-51.7754	-0.0757	1.8213	-0.3807
-25.9849	-11.4837	-51.8194	-0.0098	1.5614	-0.1621
-26.0096	-11.5208	-51.8901	0.0461	1.4896	0.0109
-26.0131	-11.5326	-51.8997	0.0521	1.4629	0.0310
-26.0170	-11.5301	-51.9118	0.0610	1.4660	0.0573
-26.0200	-11.5175	-51.9219	0.0700	1.4909	0.0819
-26.0230	-11.5148	-51.9309	0.0770	1.4937	0.1027
-26.0274	-11.5206	-51.9434	0.0850	1.4757	0.1281
-26.0304	-11.5196	-51.9527	0.0918	1.4734	0.1485
-26.0343	-11.5099	-51.9651	0.1028	1.4871	0.1801
-26.0366	-11.5058	-51.9724	0.1089	1.4912	0.1982
-26.0408	-11.5077	-51.9846	0.1170	1.4779	0.2235
-26.0496	-11.5325	-52.0091	0.1259	1.4082	0.2558
-26.0548	-11.5039	-52.0269	0.1464	1.4472	0.3138
-26.0586	-11.5008	-52.0386	0.1549	1.4405	0.3396
-26.0771	-11.5411	-52.0906	0.1679	1.3105	0.3895
-26.0819	-11.5468	-52.1044	0.1722	1.2856	0.4046
-26.0849	-11.5390	-52.1141	0.1798	1.2851	0.4271
-26.0894	-11.5413	-52.1273	0.1846	1.2651	0.4432
-26.0982	-11.5173	-52.1556	0.2068	1.2585	0.5102
-26.1014	-11.5091	-52.1663	0.2149	1.2531	0.5348
-26.1626	-11.5586	-52.3449	0.2344	0.9530	0.6186
-26.1692	-11.5625	-52.3643	0.2350	0.9257	0.6229
-26.2595	-11.5517	-52.6355	0.2405	0.6216	0.6651
-26.8267	-11.6524	-54.3222	0.1151	0.1100	0.3345
-25.7650	-11.4075	-51.1767	-0.2568	0.6459	-0.8249
-25.8301	-11.4410	-51.3694	-0.2441	0.9240	-0.8105
-25.8350	-11.4439	-51.3838	-0.2412	0.9475	-0.8040
-25.8376	-11.4556	-51.3907	-0.2346	0.9565	-0.7850
-25.8405	-11.4664	-51.3984	-0.2283	0.9664	-0.7670
-25.8557	-11.4720	-51.4436	-0.2178	1.0394	-0.7417
-25.8656	-11.4976	-51.4712	-0.1991	1.0712	-0.6882
-25.8681	-11.5072	-51.4780	-0.1929	1.0759	-0.6700
-25.8896	-11.4685	-51.5457	-0.1902	1.2218	-0.6743
-25.8991	-11.4908	-51.5726	-0.1683	1.2448	-0.6106
-25.9881	-11.4940	-51.8397	0.0069	1.5512	-0.1112
-25.9945	-11.5061	-51.8581	0.0217	1.5275	-0.0645
-26.0123	-11.5217	-51.9101	0.0604	1.4903	0.0546
-26.0157	-11.5201	-51.9206	0.0682	1.4912	0.0782
-26.0190	-11.5265	-51.9302	0.0742	1.4742	0.0975
-26.0266	-11.5261	-51.9530	0.0903	1.4649	0.1465
-26.0358	-11.5119	-51.9819	0.1136	1.4770	0.2157
-26.0443	-11.5276	-52.0061	0.1251	1.4256	0.2545
-26.0481	-11.5240	-52.0179	0.1336	1.4221	0.2803
-26.0506	-11.5118	-52.0264	0.1430	1.4377	0.3072
-26.0532	-11.5013	-52.0351	0.1522	1.4490	0.3339
-26.0770	-11.5490	-52.1027	0.1703	1.2887	0.4017
-26.0813	-11.5540	-52.1150	0.1739	1.2667	0.4144
-26.0861	-11.5548	-52.1295	0.1797	1.2480	0.4336
-26.0890	-11.5423	-52.1393	0.1889	1.2523	0.4607
-26.0916	-11.5322	-52.1481	0.1968	1.2540	0.4845
-26.0952	-11.5317	-52.1589	0.2012	1.2397	0.4989
-26.1187	-11.4913	-52.2331	0.2449	1.1690	0.6361
-26.1222	-11.4893	-52.2438	0.2486	1.1528	0.6487
-26.1313	-11.4711	-52.2729	0.2645	1.1168	0.6995
-26.1877	-11.5462	-52.4359	0.2460	0.8409	0.6673
-26.2002	-11.5241	-52.4753	0.2550	0.7947	0.6982
-26.2007	-11.5057	-52.4788	0.2619	0.7917	0.7194
-26.2953	-11.5700	-52.7579	0.2265	0.5229	0.6361
-26.3029	-11.5378	-52.7833	0.2312	0.4977	0.6524
-26.5111	-11.5947	-53.4042	0.1680	0.2367	0.4847
-26.8145	-11.6557	-54.3109	0.1150	0.1113	0.3362
-27.2702	-11.6997	-55.6771	0.0768	0.0506	0.2264
-27.2643	-11.6277	-55.6654	0.0774	0.0469	0.2287
-25.7702	-11.4301	-51.1966	-0.2494	0.6760	-0.8091
-25.7774	-11.4312	-51.2182	-0.2501	0.7029	-0.8134
-25.7878	-11.4455	-51.2485	-0.2454	0.7448	-0.8030
-25.8063	-11.4720	-51.3022	-0.2340	0.8199	-0.7748
-25.8358	-11.4525	-51.3928	-0.2358	0.9609	-0.7921
-25.8403	-11.4590	-51.4060	-0.2308	0.9813	-0.7788
-25.8538	-11.4655	-51.4459	-0.2206	1.0471	-0.7538
-25.9655	-11.3787	-51.7913	-0.0589	1.8454	-0.3332
-26.0054	-11.5240	-51.8994	0.0516	1.4913	0.0300
-26.0089	-11.5276	-51.9101	0.0590	1.4816	0.0531
-26.0120	-11.5270	-51.9193	0.0657	1.4804	0.0735
-26.0188	-11.5223	-51.9403	0.0814	1.4832	0.1206
-26.0218	-11.5142	-51.9501	0.0900	1.4963	0.1455
-26.0258	-11.5209	-51.9615	0.0966	1.4755	0.1672
-26.0321	-11.4984	-51.9824	0.1171	1.5101	0.2262
-26.0350	-11.4988	-51.9915	0.1234	1.5017	0.2460
-26.0441	-11.5210	-52.0170	0.1333	1.4328	0.2818
-26.0464	-11.5026	-52.0256	0.1450	1.4610	0.3147
-26.0489	-11.4922	-52.0340	0.1544	1.4727	0.3419
-26.0525	-11.4923	-52.0447	0.1611	1.4597	0.3634
-26.0558	-11.4936	-52.0545	0.1666	1.4451	0.3812
-26.0762	-11.5433	-52.1124	0.1763	1.2887	0.4237
-26.0810	-11.5442	-52.1266	0.1822	1.2695	0.4430
-26.0845	-11.5397	-52.1375	0.1886	1.2613	0.4631
-26.0880	-11.5395	-52.1483	0.1931	1.2473	0.4778
-26.0924	-11.5402	-52.1614	0.1978	1.2286	0.4935
-26.0945	-11.5279	-52.1691	0.2061	1.2328	0.5184
-26.1006	-11.5173	-52.1885	0.2179	1.2166	0.5554
-26.1182	-11.4890	-52.2440	0.2482	1.1552	0.6520
-26.1586	-11.5637	-52.3600	0.2330	0.9346	0.6248
-26.1758	-11.5418	-52.4141	0.2460	0.8713	0.6697
-26.1950	-11.4824	-52.4769	0.2703	0.7960	0.7493
-26.8064	-11.6622	-54.3103	0.1144	0.1120	0.3363
-25.6995	-11.4838	-50.9843	-0.2178	0.4881	-0.7014
-25.7681	-11.4320	-51.1966	-0.2482	0.6760	-0.8095
-25.7768	-11.4314	-51.2231	-0.2497	0.7087	-0.8169
-25.8296	-11.4473	-51.3824	-0.2394	0.9447	-0.8053
-25.8350	-11.4501	-51.3985	-0.2361	0.9713	-0.7976
-25.8407	-11.4485	-51.4158	-0.2346	1.0016	-0.7955
-25.8543	-11.4755	-51.4550	-0.2137	1.0583	-0.7370
-25.8916	-11.4748	-51.5684	-0.1784	1.2589	-0.6468
-25.9456	-11.3131	-51.7461	-0.1464	1.9909	-0.6110
-25.9555	-11.3197	-51.7757	-0.1040	2.0367	-0.4859
-25.9944	-11.4842	-51.8805	0.0390	1.5918	-0.0146
-26.0084	-11.5159	-51.9206	0.0674	1.5093	0.0785
-26.0166	-11.5481	-51.9428	0.0779	1.4320	0.1169
-26.0220	-11.5116	-51.9622	0.0985	1.4996	0.1736
-26.0260	-11.5129	-51.9743	0.1067	1.4889	0.1995
-26.0460	-11.5051	-52.0357	0.1498	1.4493	0.3339
-26.0773	-11.5469	-52.1277	0.1808	1.2676	0.4432
-26.0823	-11.5561	-52.1419	0.1829	1.2372	0.4520
-26.0907	-11.5592	-52.1673	0.1911	1.2007	0.4801
-26.0947	-11.5543	-52.1802	0.1976	1.1893	0.5009
-26.1578	-11.5560	-52.3718	0.2365	0.9241	0.6413
-26.1624	-11.5521	-52.3862	0.2394	0.9064	0.6514
-26.1964	-11.5236	-52.4922	0.2534	0.7761	0.7050
-26.2041	-11.5060	-52.5172	0.2590	0.7460	0.7247
-26.2804	-11.5374	-52.7469	0.2331	0.5256	0.6645
-26.4928	-11.5614	-53.3907	0.1701	0.2330	0.4974
-26.7938	-11.6588	-54.2979	0.1145	0.1126	0.3385
-27.2422	-11.7041	-55.6580	0.0764	0.0512	0.2280
-25.7083	-11.4861	-51.0173	-0.2191	0.5141	-0.7108
-25.7669	-11.4317	-51.2007	-0.2478	0.6802	-0.8124
-25.7738	-11.4361	-51.2213	-0.2472	0.7068	-0.8126
-25.7861	-11.4597	-51.2571	-0.2389	0.7572	-0.7914
-25.8357	-11.4390	-51.4103	-0.2400	0.9940	-0.8143
-25.8392	-11.4455	-51.4207	-0.2351	1.0105	-0.8008
-25.8427	-11.4527	-51.4306	-0.2298	1.0256	-0.7859
-25.8503	-11.4633	-51.4529	-0.2201	1.0605	-0.7593
-25.8549	-11.4643	-51.4670	-0.2166	1.0849	-0.7505
-25.8804	-11.4751	-51.5442	-0.1880	1.2154	-0.6741
-25.8877	-11.4831	-51.5657	-0.1757	1.2451	-0.6390
-25.8926	-11.4813	-51.5810	-0.1702	1.2736	-0.6244
-25.8963	-11.4837	-51.5921	-0.1640	1.2897	-0.6068
-25.9139	-11.4971	-51.6449	-0.1314	1.3559	-0.5129
-25.9184	-11.4952	-51.6587	-0.1245	1.3797	-0.4936
-25.9450	-11.3136	-51.7552	-0.1361	2.0142	-0.5814
-25.9547	-11.3245	-51.7838	-0.0923	2.0366	-0.4495
-25.9649	-11.3855	-51.8103	-0.0381	1.8529	-0.2687
-25.9742	-11.5305	-51.8271	-0.0033	1.4735	-0.1311
-25.9914	-11.4930	-51.8824	0.0386	1.5718	-0.0113
-26.0091	-11.5297	-51.9340	0.0735	1.4761	0.1030
-26.0161	-11.5285	-51.9553	0.0884	1.4691	0.1493
-26.0187	-11.5142	-51.9643	0.0978	1.4948	0.1759
-26.0218	-11.5097	-51.9743	0.1059	1.4981	0.2003
-26.0250	-11.5071	-51.9844	0.1137	1.4965	0.2243
-26.0386	-11.5085	-52.0260	0.1408	1.4554	0.3106
-26.0492	-11.5026	-52.0589	0.1630	1.4294	0.3804
-26.0669	-11.5289	-52.1112	0.1793	1.3176	0.4396
-26.1010	-11.5404	-52.2144	0.2128	1.1585	0.5550
-26.1166	-11.5499	-52.2615	0.2206	1.0824	0.5850
-26.1149	-11.4744	-52.2629	0.2576	1.1395	0.6936
-26.1611	-11.5667	-52.3965	0.2330	0.8898	0.6388
-26.1950	-11.5124	-52.5049	0.2557	0.7626	0.7189
-26.1968	-11.4979	-52.5119	0.2607	0.7538	0.7349
-26.1970	-11.4786	-52.5138	0.2677	0.7505	0.7567
-26.5555	-11.6194	-53.5994	0.1508	0.1980	0.4448
-27.2411	-11.7059	-55.6890	0.0755	0.0506	0.2266
-25.7073	-11.4830	-51.0235	-0.2193	0.5175	-0.7145
-25.7647	-11.4335	-51.2035	-0.2463	0.6829	-0.8105
-25.7710	-11.4363	-51.2229	-0.2462	0.7076	-0.8122
-25.7835	-11.4619	-51.2592	-0.2371	0.7589	-0.7885
-25.8339	-11.4336	-51.4163	-0.2413	1.0040	-0.8211
-25.8360	-11.4463	-51.4217	-0.2339	1.0101	-0.7989
-25.8591	-11.4741	-51.4906	-0.2054	1.1184	-0.7201
-25.8916	-11.4621	-51.5915	-0.1753	1.3132	-0.6433
-25.8944	-11.4707	-51.5994	-0.1673	1.3163	-0.6189
-25.8985	-11.4683	-51.6123	-0.1622	1.3424	-0.6054
-25.9090	-11.4773	-51.6436	-0.1414	1.3824	-0.5447
-25.9191	-11.4872	-51.6741	-0.1194	1.4131	-0.4796
-25.9435	-11.3150	-51.7629	-0.1272	2.0229	-0.5526
-25.9549	-11.3948	-51.7918	-0.0580	1.7986	-0.3220
-25.9609	-11.3859	-51.8107	-0.0399	1.8491	-0.2705
-25.9669	-11.3794	-51.8297	-0.0195	1.8893	-0.2112
-25.9846	-11.5384	-51.8717	0.0267	1.4656	-0.0354
-26.0045	-11.5122	-51.9352	0.0748	1.5140	0.1086
-26.0079	-11.5112	-51.9457	0.0826	1.5117	0.1327
-26.0118	-11.5199	-51.9570	0.0889	1.4864	0.1541
-26.0153	-11.5205	-51.9677	0.0962	1.4789	0.1770
-26.0184	-11.5150	-51.9776	0.1043	1.4843	0.2015
-26.0213	-11.5145	-51.9867	0.1106	1.4787	0.2214
-26.0292	-11.5252	-52.0101	0.1227	1.4374	0.2621
-26.0321	-11.5086	-52.0206	0.1346	1.4611	0.2967
-26.0391	-11.5126	-52.0418	0.1463	1.4311	0.3350
-26.0415	-11.5010	-52.0500	0.1556	1.4441	0.3624
-26.0478	-11.4949	-52.0702	0.1700	1.4303	0.4078
-26.0621	-11.5268	-52.1113	0.1777	1.3219	0.4401
-26.0753	-11.5362	-52.1514	0.1908	1.2545	0.4857
-26.0783	-11.5262	-52.1617	0.1991	1.2530	0.5116
-26.1025	-11.5479	-52.2342	0.2125	1.1247	0.5628
-26.1101	-11.4730	-52.2640	0.2560	1.1410	0.6954
-26.1131	-11.4637	-52.2739	0.2630	1.1300	0.7178
-26.1224	-11.4265	-52.3053	0.2888	1.0932	0.7999
-26.1242	-11.4159	-52.3120	0.2956	1.0849	0.8218
-26.1940	-11.5037	-52.5198	0.2564	0.7465	0.7285
-25.7638	-11.4257	-51.2111	-0.2486	0.6892	-0.8207
-25.7670	-11.4373	-51.2201	-0.2447	0.7033	-0.8098
-25.7738	-11.4595	-51.2393	-0.2370	0.7317	-0.7883
-25.8083	-11.4342	-51.3480	-0.2463	0.8853	-0.8290
-25.8294	-11.4369	-51.4127	-0.2394	0.9948	-0.8163
-25.8532	-11.4888	-51.4823	-0.2001	1.0923	-0.7026
-25.8816	-11.4781	-51.5709	-0.1764	1.2546	-0.6422
-25.9399	-11.3145	-51.7637	-0.1284	2.0224	-0.5541
-25.9631	-11.3640	-51.8319	-0.0220	1.9445	-0.2196
-25.9661	-11.3730	-51.8403	-0.0104	1.9182	-0.1818
-25.9974	-11.5146	-51.9263	0.0657	1.5113	0.0849
-26.0005	-11.5169	-51.9356	0.0721	1.5029	0.1054
-26.0084	-11.5427	-51.9580	0.0829	1.4376	0.1439
-26.0138	-11.5109	-51.9774	0.1028	1.4936	0.2010
-26.0238	-11.5061	-52.0086	0.1252	1.4784	0.2715
-26.0273	-11.5120	-52.0191	0.1302	1.4563	0.2884
-26.0312	-11.5102	-52.0311	0.1382	1.4480	0.3140
-26.0333	-11.5011	-52.0385	0.1461	1.4581	0.3375
-26.0374	-11.5018	-52.0510	0.1534	1.4423	0.3614
-26.0657	-11.5858	-52.1322	0.1616	1.2146	0.4044
-26.0650	-11.5186	-52.1353	0.1896	1.3027	0.4839
-26.0697	-11.5233	-52.1494	0.1933	1.2760	0.4976
-26.0737	-11.5232	-52.1618	0.1982	1.2582	0.5142
-26.1136	-11.4260	-52.2929	0.2853	1.1205	0.7938
-26.2712	-11.5486	-52.7708	0.2246	0.5136	0.6540
-26.5099	-11.6054	-53.5046	0.1564	0.2163	0.4664
-26.5133	-11.5773	-53.5173	0.1572	0.2079	0.4696
-26.5873	-11.6066	-53.7438	0.1412	0.1711	0.4229
-26.8922	-11.6735	-54.6810	0.0992	0.0877	0.2997
-27.2515	-11.6482	-55.7933	0.0733	0.0452	0.2229
-26.3260	-10.7702	-53.0021	0.2605	-0.0627	0.8101
-25.7616	-11.4247	-51.2102	-0.2482	0.6874	-0.8223
-25.8069	-11.4301	-51.3506	-0.2475	0.8892	-0.8360
-25.8292	-11.4301	-51.4197	-0.2415	1.0086	-0.8267
-25.8426	-11.4582	-51.4591	-0.2203	1.0693	-0.7655
-25.8891	-11.4663	-51.6032	-0.1681	1.3261	-0.6233
-25.8930	-11.4658	-51.6153	-0.1624	1.3486	-0.6076
-25.9472	-11.3690	-51.7912	-0.0699	1.8800	-0.3615
-26.0071	-11.5202	-51.9658	0.0914	1.4823	0.1698
-26.0134	-11.5069	-51.9867	0.1090	1.4970	0.2232
-26.0211	-11.5167	-52.0097	0.1214	1.4570	0.2649
-26.0280	-11.5159	-52.0314	0.1352	1.4381	0.3090
-26.0304	-11.5036	-52.0396	0.1445	1.4538	0.3368
-26.0369	-11.4988	-52.0602	0.1587	1.4387	0.3820
-26.0629	-11.5309	-52.1386	0.1842	1.2824	0.4733
-26.0679	-11.5116	-52.1557	0.1998	1.2844	0.5216
-26.0728	-11.5177	-52.1707	0.2027	1.2539	0.5329
-26.0838	-11.5124	-52.2051	0.2169	1.2070	0.5806
-26.0953	-11.5306	-52.2394	0.2181	1.1364	0.5896
-26.1073	-11.4985	-52.2796	0.2423	1.0993	0.6678
-26.1064	-11.4306	-52.2819	0.2795	1.1414	0.7800
-26.1218	-11.4596	-52.3274	0.2691	1.0408	0.7556
-26.1688	-11.5163	-52.4692	0.2500	0.8124	0.7137
-26.3321	-11.6046	-52.9702	0.1969	0.4019	0.5807
-26.4732	-11.5689	-53.4115	0.1648	0.2312	0.4940
-26.8638	-11.6649	-54.6183	0.1009	0.0907	0.3064
-27.0091	-11.6786	-55.0685	0.0879	0.0692	0.2678
-26.3142	-10.7571	-52.9812	0.2637	-0.0755	0.8252
-25.7717	-11.4515	-51.2463	-0.2387	0.7386	-0.8002
-25.8357	-11.4312	-51.4476	-0.2363	1.0595	-0.8171
-25.8387	-11.4588	-51.4549	-0.2204	1.0610	-0.7677
-25.8605	-11.4244	-51.5258	-0.2216	1.2194	-0.7835
-25.8634	-11.4315	-51.5343	-0.2148	1.2310	-0.7629
-25.8803	-11.4515	-51.5855	-0.1839	1.3120	-0.6728
-25.8918	-11.4503	-51.6215	-0.1673	1.3822	-0.6265
-25.8938	-11.4606	-51.6268	-0.1593	1.3767	-0.6010
-25.9392	-11.4124	-51.7723	-0.0754	1.7206	-0.3654
-25.9462	-11.3858	-51.7966	-0.0596	1.8327	-0.3247
-26.0070	-11.5091	-51.9772	0.1006	1.5008	0.2001
-26.0136	-11.5075	-51.9981	0.1152	1.4882	0.2467
-26.0165	-11.5067	-52.0072	0.1214	1.4819	0.2667
-26.0202	-11.5104	-52.0186	0.1276	1.4636	0.2875
-26.0241	-11.5148	-52.0303	0.1335	1.4431	0.3074
-26.0281	-11.5242	-52.0420	0.1373	1.4130	0.3215
-26.0328	-11.4968	-52.0588	0.1572	1.4461	0.3812
-26.0553	-11.5726	-52.1236	0.1603	1.2449	0.4061
-26.0631	-11.5073	-52.1527	0.1992	1.2966	0.5235
-26.0657	-11.4998	-52.1619	0.2064	1.2926	0.5465
-26.0865	-11.5275	-52.2246	0.2141	1.1633	0.5803
-26.0933	-11.4544	-52.2517	0.2584	1.1845	0.7169
-26.1054	-11.4685	-52.2882	0.2577	1.1070	0.7208
-26.1108	-11.4746	-52.3048	0.2571	1.0742	0.7214
-26.1398	-11.5314	-52.3908	0.2400	0.9157	0.6799
-26.2518	-11.5326	-52.7412	0.2286	0.5344	0.6735
-26.3405	-11.6124	-53.0122	0.1915	0.3830	0.5691
-26.3487	-11.6020	-53.0387	0.1908	0.3683	0.5679
-26.3538	-11.5817	-53.0561	0.1919	0.3557	0.5725
-26.3765	-11.5153	-53.1322	0.1927	0.3066	0.5786
-26.5791	-11.5890	-53.7598	0.1397	0.1659	0.4239
-26.7804	-11.6449	-54.3842	0.1089	0.1049	0.3322
-25.6887	-11.4808	-50.9910	-0.2142	0.4898	-0.7082
-25.7543	-11.4116	-51.2017	-0.2510	0.6720	-0.8372
-25.7578	-11.4250	-51.2116	-0.2468	0.6883	-0.8252
-25.7707	-11.4490	-51.2505	-0.2393	0.7434	-0.8061
-25.8026	-11.4252	-51.3524	-0.2489	0.8916	-0.8470
-25.8569	-11.4276	-51.5229	-0.2209	1.2119	-0.7834
-25.8715	-11.4403	-51.5676	-0.1978	1.2913	-0.7172
-25.8757	-11.4380	-51.5810	-0.1936	1.3212	-0.7062
-25.9179	-11.4392	-51.7136	-0.1150	1.5694	-0.4785
-25.9215	-11.4335	-51.7253	-0.1085	1.6011	-0.4603
-25.9429	-11.3814	-51.7965	-0.0620	1.8524	-0.3335
-25.9455	-11.3878	-51.8040	-0.0520	1.8405	-0.3012
-25.9740	-11.5359	-51.8826	0.0298	1.4767	-0.0173
-25.9966	-11.5140	-51.9555	0.0838	1.5077	0.1497
-26.0032	-11.5194	-51.9758	0.0966	1.4838	0.1918
-26.0070	-11.5194	-51.9879	0.1047	1.4751	0.2177
-26.0104	-11.5186	-51.9985	0.1119	1.4688	0.2406
-26.0132	-11.5158	-52.0074	0.1184	1.4670	0.2612
-26.0163	-11.5074	-52.0179	0.1277	1.4747	0.2899
-26.0302	-11.5127	-52.0613	0.1520	1.4172	0.3705
-26.0539	-11.5882	-52.1301	0.1570	1.2199	0.4010
-26.0580	-11.5268	-52.1477	0.1879	1.2805	0.4934
-26.0738	-11.5276	-52.1971	0.2054	1.2073	0.5540
-26.0817	-11.4993	-52.2245	0.2272	1.1942	0.6234
-26.0890	-11.4713	-52.2493	0.2481	1.1772	0.6902
-26.0903	-11.4573	-52.2544	0.2570	1.1795	0.7179
-26.0918	-11.4449	-52.2603	0.2653	1.1781	0.7441
-26.0942	-11.4342	-52.2687	0.2732	1.1696	0.7696
-26.0952	-11.4227	-52.2727	0.2808	1.1694	0.7936
-26.0968	-11.4093	-52.2789	0.2901	1.1651	0.8230
-26.1811	-11.5024	-52.5367	0.2515	0.7307	0.7345
-26.2274	-11.4834	-52.6837	0.2455	0.5724	0.7277
-26.3285	-11.6205	-52.9912	0.1914	0.3949	0.5714
-26.3408	-11.6222	-53.0298	0.1882	0.3766	0.5626
-26.3476	-11.6053	-53.0523	0.1886	0.3626	0.5650
-26.3539	-11.5904	-53.0731	0.1888	0.3500	0.5664
-26.3579	-11.5711	-53.0871	0.1899	0.3394	0.5707
-26.3582	-11.5453	-53.0900	0.1927	0.3316	0.5801
-26.5166	-11.5874	-53.5845	0.1501	0.1962	0.4567
-26.7809	-11.6510	-54.4104	0.1074	0.1034	0.3294
-25.6931	-11.4697	-51.0118	-0.2181	0.5018	-0.7249
-25.6984	-11.4803	-51.0277	-0.2169	0.5181	-0.7222
-25.7674	-11.4526	-51.2474	-0.2378	0.7396	-0.8047
-25.8889	-11.4599	-51.6304	-0.1588	1.3904	-0.6045
-25.9217	-11.4411	-51.7354	-0.0982	1.6045	-0.4296
-25.9369	-11.3883	-51.7873	-0.0702	1.8261	-0.3580
-25.9635	-11.5280	-51.8609	0.0143	1.4977	-0.0667
-25.9673	-11.5284	-51.8729	0.0229	1.4985	-0.0397
-25.9930	-11.5004	-51.9565	0.0871	1.5446	0.1594
-25.9964	-11.5020	-51.9669	0.0944	1.5342	0.1830
-25.9996	-11.5005	-51.9770	0.1020	1.5307	0.2072
-26.0025	-11.4969	-51.9868	0.1099	1.5314	0.2321
-26.0066	-11.5069	-51.9989	0.1153	1.4990	0.2517
-26.0096	-11.5081	-52.0082	0.1212	1.4881	0.2710
-26.0128	-11.5068	-52.0187	0.1283	1.4808	0.2941
-26.0171	-11.5213	-52.0311	0.1313	1.4390	0.3066
-26.0211	-11.5213	-52.0436	0.1387	1.4261	0.3309
-26.0240	-11.5198	-52.0529	0.1445	1.4188	0.3499
-26.0491	-11.5790	-52.1280	0.1593	1.2383	0.4099
-26.0563	-11.5399	-52.1536	0.1845	1.2585	0.4882
-26.0618	-11.5239	-52.1723	0.1986	1.2524	0.5330
-26.0680	-11.5160	-52.1926	0.2092	1.2308	0.5683
-26.0874	-11.5288	-52.2527	0.2202	1.1248	0.6107
-26.0949	-11.5005	-52.2789	0.2392	1.1055	0.6723
-26.0955	-11.4036	-52.2880	0.2949	1.1509	0.8446
-26.0964	-11.3928	-52.2920	0.3023	1.1478	0.8682
-26.3353	-11.5933	-53.0315	0.1913	0.3693	0.5763
-26.3406	-11.5810	-53.0497	0.1913	0.3580	0.5773
-26.3509	-11.5733	-53.0826	0.1894	0.3415	0.5725
-25.7503	-11.4216	-51.2025	-0.2470	0.6750	-0.8328
-25.7480	-11.4485	-51.1934	-0.2370	0.6716	-0.8010
-25.7780	-11.4639	-51.2873	-0.2335	0.7946	-0.7990
-25.7976	-11.4393	-51.3513	-0.2423	0.8901	-0.8343
-25.8162	-11.4316	-51.4108	-0.2416	0.9932	-0.8396
-25.8660	-11.4233	-51.5695	-0.2081	1.3199	-0.7578
-25.8672	-11.4401	-51.5721	-0.1973	1.3066	-0.7225
-25.9038	-11.4716	-51.6860	-0.1216	1.4693	-0.4949
-25.9285	-11.3980	-51.7697	-0.0852	1.7778	-0.4025
-25.9374	-11.3919	-51.7986	-0.0579	1.8370	-0.3204
-25.9425	-11.3916	-51.8147	-0.0407	1.8566	-0.2672
-25.9931	-11.4953	-51.9680	0.0966	1.5552	0.1907
-26.0006	-11.5160	-51.9904	0.1070	1.4917	0.2283
-26.0037	-11.5173	-51.9998	0.1129	1.4812	0.2477
-26.0106	-11.5146	-52.0223	0.1280	1.4663	0.2969
-26.0178	-11.5225	-52.0446	0.1387	1.4277	0.3339
-26.0425	-11.5512	-52.1213	0.1666	1.2890	0.4327
-26.0565	-11.5128	-52.1685	0.2021	1.2758	0.5464
-26.0770	-11.5139	-52.2339	0.2223	1.1705	0.6183
-26.0803	-11.5086	-52.2447	0.2276	1.1578	0.6360
-26.0994	-11.5163	-52.3048	0.2360	1.0554	0.6702
-26.0837	-11.4031	-52.2635	0.2915	1.2076	0.8353
-26.0845	-11.3918	-52.2670	0.2996	1.2073	0.8610
-26.0877	-11.3858	-52.2776	0.3051	1.1864	0.8799
-26.1436	-11.5268	-52.4444	0.2431	0.8478	0.7084
-26.1486	-11.5264	-52.4605	0.2435	0.8266	0.7113
-26.1580	-11.5138	-52.4915	0.2480	0.7878	0.7285
-26.1594	-11.4982	-52.4971	0.2536	0.7809	0.7468
-26.1786	-11.4975	-52.5580	0.2510	0.7061	0.7440
-26.3124	-11.6288	-52.9733	0.1904	0.4056	0.5742
-26.3412	-11.6073	-53.0668	0.1860	0.3563	0.5639
-26.3714	-11.5834	-53.1643	0.1807	0.3108	0.5504
-26.5009	-11.6054	-53.5742	0.1487	0.2012	0.4571
-26.5054	-11.5774	-53.5904	0.1491	0.1927	0.4591
-26.5353	-11.5462	-53.6877	0.1443	0.1691	0.4456
-26.7400	-11.6536	-54.3293	0.1094	0.1098	0.3392
-26.8747	-11.6376	-54.7589	0.0953	0.0800	0.2965
-27.1894	-11.6328	-55.7581	0.0724	0.0450	0.2265
-26.2957	-10.7566	-52.9867	0.2577	-0.0810	0.8242
-25.7463	-11.4176	-51.2004	-0.2477	0.6696	-0.8370
-25.7646	-11.4859	-51.2540	-0.2250	0.7506	-0.7705
-25.7947	-11.4296	-51.3538	-0.2466	0.8920	-0.8496
-25.8105	-11.4327	-51.4043	-0.2417	0.9788	-0.8401
-25.8629	-11.4155	-51.5727	-0.2125	1.3328	-0.7727
-25.8733	-11.4452	-51.6039	-0.1815	1.3620	-0.6761
-25.8801	-11.4527	-51.6249	-0.1672	1.3924	-0.6325
-25.9046	-11.4809	-51.7014	-0.1099	1.4728	-0.4558
-25.9526	-11.5331	-51.8509	0.0046	1.4897	-0.0922
-25.9587	-11.4921	-51.8733	0.0207	1.5915	-0.0480
-25.9623	-11.4943	-51.8846	0.0297	1.5869	-0.0193
-25.9684	-11.4930	-51.9046	0.0455	1.5889	0.0310
-25.9902	-11.4969	-51.9742	0.0977	1.5490	0.2004
-25.9977	-11.5042	-51.9973	0.1119	1.5142	0.2484
-26.0011	-11.5061	-52.0082	0.1187	1.5002	0.2708
-26.0040	-11.5062	-52.0174	0.1247	1.4913	0.2905
-26.0152	-11.5180	-52.0525	0.1421	1.4301	0.3505
