-25.8479	-10.7254	-53.0800	0.2471	1.6749	0.5050
-25.8505	-10.7262	-53.0899	0.2517	1.6539	0.5283
-25.8527	-10.7263	-53.0983	0.2557	1.6369	0.5486
-25.8556	-10.7286	-53.1090	0.2591	1.6099	0.5691
-25.8583	-10.7283	-53.1203	0.2639	1.5872	0.5943
-25.8605	-10.7279	-53.1289	0.2676	1.5698	0.6134
-25.8633	-10.7286	-53.1395	0.2710	1.5454	0.6334
-25.8658	-10.7297	-53.1490	0.2736	1.5226	0.6496
-25.8686	-10.7300	-53.1598	0.2768	1.4983	0.6686
-25.8716	-10.7295	-53.1718	0.2805	1.4724	0.6903
-25.8743	-10.7309	-53.1819	0.2823	1.4473	0.7040
-25.8777	-10.7332	-53.1943	0.2837	1.4161	0.7180
-26.1053	-11.6868	-53.8209	0.1062	0.4722	0.2846
-26.1161	-11.6577	-53.8710	0.1091	0.4610	0.2990
-26.1270	-11.6660	-53.9118	0.1087	0.4479	0.3013
-26.1445	-11.6664	-53.9802	0.1090	0.4280	0.3076
-26.1563	-11.6744	-54.0239	0.1084	0.4150	0.3088
-26.1638	-11.6651	-54.0556	0.1090	0.4068	0.3134
-26.2147	-11.6932	-54.2468	0.1056	0.3559	0.3143
-26.2180	-11.6657	-54.2671	0.1070	0.3514	0.3209
-26.2240	-11.6471	-54.2957	0.1077	0.3446	0.3255
-26.2255	-11.6139	-54.3105	0.1094	0.3411	0.3332
-26.2922	-11.6965	-54.5479	0.1007	0.2898	0.3132
-26.3008	-11.6863	-54.5850	0.1004	0.2823	0.3142
-26.3525	-11.7434	-54.7709	0.0944	0.2511	0.2993
-26.4681	-11.7579	-55.2185	0.0849	0.1904	0.2790
-26.4893	-11.7560	-55.3015	0.0833	0.1811	0.2753
-26.5070	-11.7445	-55.3736	0.0822	0.1730	0.2730
-26.5291	-11.7397	-55.4610	0.0805	0.1641	0.2691
-26.5899	-11.7546	-55.6939	0.0759	0.1446	0.2563
-26.8849	-11.7535	-56.8451	0.0584	0.0819	0.2054
-26.9162	-11.7255	-56.9747	0.0570	0.0763	0.2015
-27.0809	-11.7005	-57.6252	0.0502	0.0578	0.1799
-27.1104	-11.6512	-57.7538	0.0491	0.0535	0.1770
-27.5864	-11.6198	-59.6202	0.0362	0.0285	0.1333
-25.6128	-11.4985	-51.9695	-0.0571	0.4960	-0.3598
-25.6266	-11.5193	-52.0180	-0.0526	0.5114	-0.3465
-25.6402	-11.5391	-52.0665	-0.0480	0.5262	-0.3324
-25.6833	-11.5494	-52.2333	-0.0344	0.5843	-0.2947
-25.6887	-11.5758	-52.2476	-0.0313	0.5826	-0.2822
-25.7094	-11.5705	-52.3305	-0.0238	0.6117	-0.2607
-25.7221	-11.5844	-52.3767	-0.0183	0.6219	-0.2419
-25.7286	-11.5846	-52.4023	-0.0156	0.6296	-0.2333
-25.7358	-11.5854	-52.4305	-0.0125	0.6376	-0.2232
-25.7414	-11.5760	-52.4554	-0.0101	0.6481	-0.2169
-25.7476	-11.5824	-52.4780	-0.0073	0.6520	-0.2066
-25.7546	-11.5730	-52.5084	-0.0040	0.6638	-0.1972
-25.7608	-11.5418	-52.5411	-0.0012	0.6854	-0.1917
-25.7789	-11.5896	-52.5994	0.0077	0.6784	-0.1550
-25.7912	-11.6068	-52.6430	0.0135	0.6791	-0.1324
-25.8024	-11.6141	-52.6855	0.0189	0.6826	-0.1121
-25.8145	-11.5991	-52.7372	0.0254	0.6965	-0.0901
-25.8195	-11.5798	-52.7624	0.0288	0.7087	-0.0801
-25.8326	-11.6134	-52.8047	0.0340	0.6957	-0.0561
-25.8375	-11.6107	-52.8248	0.0366	0.6983	-0.0465
-25.8550	-11.6126	-52.8936	0.0453	0.6992	-0.0128
-25.8612	-11.6184	-52.9164	0.0479	0.6962	-0.0015
-25.8679	-11.6298	-52.9395	0.0503	0.6901	0.0095
-25.8750	-11.6367	-52.9659	0.0531	0.6858	0.0219
-25.8870	-11.6385	-53.0125	0.0584	0.6820	0.0437
-25.8914	-11.6297	-53.0321	0.0610	0.6844	0.0534
-25.8959	-11.6163	-53.0542	0.0642	0.6884	0.0649
-25.9020	-11.6110	-53.0798	0.0674	0.6878	0.0775
-25.9181	-11.6587	-53.1301	0.0697	0.6594	0.0944
-25.9232	-11.6486	-53.1527	0.0726	0.6602	0.1054
-25.9279	-11.6362	-53.1746	0.0755	0.6617	0.1166
-25.8394	-10.7253	-53.0758	0.2415	1.6866	0.4908
-25.8420	-10.7239	-53.0861	0.2477	1.6704	0.5195
-25.8441	-10.7241	-53.0944	0.2517	1.6534	0.5399
-25.8472	-10.7261	-53.1061	0.2559	1.6251	0.5641
-25.8494	-10.7283	-53.1141	0.2580	1.6037	0.5782
-25.8518	-10.7275	-53.1239	0.2624	1.5850	0.6008
-25.8543	-10.7275	-53.1339	0.2663	1.5635	0.6219
-25.8569	-10.7282	-53.1445	0.2695	1.5392	0.6416
-25.8599	-10.7281	-53.1563	0.2734	1.5133	0.6641
-25.8622	-10.7295	-53.1647	0.2751	1.4921	0.6762
-25.8653	-10.7299	-53.1771	0.2782	1.4638	0.6964
-25.8686	-10.7324	-53.1893	0.2796	1.4326	0.7106
-25.8715	-10.7344	-53.2000	0.2808	1.4056	0.7224
-26.1032	-11.6721	-53.8580	0.1066	0.4640	0.2935
-26.1091	-11.6597	-53.8846	0.1079	0.4575	0.3001
-26.1154	-11.6483	-53.9123	0.1090	0.4505	0.3064
-26.1407	-11.6755	-54.0047	0.1072	0.4211	0.3073
-26.1471	-11.6634	-54.0342	0.1080	0.4137	0.3127
-26.2038	-11.6824	-54.2526	0.1051	0.3554	0.3172
-26.2059	-11.6513	-54.2694	0.1067	0.3518	0.3246
-26.2608	-11.7084	-54.4709	0.1005	0.3061	0.3125
-26.2709	-11.7037	-54.5122	0.1000	0.2976	0.3129
-26.2808	-11.6868	-54.5557	0.0999	0.2887	0.3153
-26.2876	-11.6711	-54.5871	0.1000	0.2822	0.3174
-26.2918	-11.6370	-54.6127	0.1010	0.2762	0.3228
-26.3524	-11.7204	-54.8292	0.0931	0.2416	0.3012
-26.3661	-11.7124	-54.8863	0.0922	0.2325	0.3001
-26.4172	-11.7472	-55.0786	0.0872	0.2073	0.2871
-26.4614	-11.7544	-55.2510	0.0835	0.1869	0.2784
-26.4802	-11.7532	-55.3253	0.0821	0.1788	0.2749
-26.5320	-11.7612	-55.5275	0.0780	0.1594	0.2643
-26.5464	-11.7382	-55.5908	0.0773	0.1526	0.2631
-26.5536	-11.7000	-55.6306	0.0772	0.1473	0.2642
-26.8577	-11.7914	-56.8058	0.0581	0.0849	0.2059
-26.8745	-11.7456	-56.8863	0.0574	0.0803	0.2045
-26.8983	-11.7070	-56.9907	0.0564	0.0753	0.2018
-27.0483	-11.7446	-57.5727	0.0500	0.0605	0.1809
-27.0719	-11.6904	-57.6805	0.0492	0.0564	0.1787
-27.2760	-11.6513	-58.4967	0.0426	0.0412	0.1569
-25.5933	-11.5221	-51.8982	-0.0577	0.4679	-0.3588
-25.6141	-11.4857	-51.9908	-0.0560	0.5053	-0.3622
-25.6211	-11.4936	-52.0166	-0.0539	0.5141	-0.3562
-25.6255	-11.5172	-52.0273	-0.0513	0.5149	-0.3463
-25.6319	-11.5412	-52.0465	-0.0483	0.5184	-0.3351
-25.6383	-11.5555	-52.0680	-0.0458	0.5239	-0.3268
-25.6691	-11.5350	-52.1964	-0.0378	0.5743	-0.3089
-25.6753	-11.5468	-52.2179	-0.0352	0.5793	-0.2998
-25.6807	-11.5733	-52.2320	-0.0321	0.5777	-0.2873
-25.6874	-11.5763	-52.2580	-0.0297	0.5857	-0.2797
-25.7204	-11.5765	-52.3897	-0.0168	0.6283	-0.2404
-25.7393	-11.5789	-52.4641	-0.0086	0.6494	-0.2132
-25.7460	-11.5946	-52.4870	-0.0053	0.6496	-0.2004
-25.7634	-11.5744	-52.5620	0.0029	0.6765	-0.1751
-25.7695	-11.5915	-52.5813	0.0058	0.6736	-0.1629
-25.7756	-11.6016	-52.6028	0.0086	0.6737	-0.1516
-25.7815	-11.6025	-52.6262	0.0115	0.6779	-0.1412
-25.7873	-11.5971	-52.6508	0.0145	0.6848	-0.1312
-25.7939	-11.5996	-52.6767	0.0178	0.6879	-0.1189
-25.7998	-11.6012	-52.6998	0.0207	0.6906	-0.1080
-25.8055	-11.5985	-52.7232	0.0237	0.6951	-0.0973
-25.8108	-11.5864	-52.7478	0.0269	0.7039	-0.0870
-25.8163	-11.5828	-52.7708	0.0300	0.7081	-0.0761
-25.8279	-11.6031	-52.8114	0.0350	0.7013	-0.0541
-25.8354	-11.6224	-52.8361	0.0378	0.6932	-0.0409
-25.8520	-11.6238	-52.9022	0.0458	0.6938	-0.0089
-25.8578	-11.6245	-52.9252	0.0486	0.6932	0.0022
-25.8645	-11.6257	-52.9515	0.0517	0.6919	0.0149
-25.8707	-11.6306	-52.9748	0.0542	0.6885	0.0259
-25.8769	-11.6442	-52.9957	0.0560	0.6808	0.0351
-25.8818	-11.6334	-53.0184	0.0590	0.6841	0.0464
-25.8868	-11.6252	-53.0411	0.0620	0.6859	0.0576
-25.8935	-11.6344	-53.0654	0.0641	0.6790	0.0680
-25.9060	-11.6407	-53.1134	0.0687	0.6700	0.0890
-25.9128	-11.6477	-53.1384	0.0708	0.6632	0.0990
-25.9178	-11.6310	-53.1629	0.0743	0.6664	0.1120
-25.9231	-11.6319	-53.1839	0.0762	0.6623	0.1208
-25.9296	-11.6300	-53.2110	0.0788	0.6578	0.1325
-25.9349	-11.6235	-53.2339	0.0813	0.6558	0.1432
-25.8320	-10.7286	-53.0706	0.2349	1.6902	0.4696
-25.8339	-10.7258	-53.0792	0.2411	1.6816	0.4968
-25.8362	-10.7248	-53.0884	0.2464	1.6665	0.5220
-25.8392	-10.7247	-53.1006	0.2522	1.6428	0.5519
-25.8416	-10.7265	-53.1097	0.2552	1.6199	0.5699
-25.8442	-10.7277	-53.1201	0.2587	1.5957	0.5909
-25.8463	-10.7274	-53.1287	0.2623	1.5784	0.6100
-25.8491	-10.7268	-53.1400	0.2668	1.5552	0.6344
-25.8520	-10.7283	-53.1510	0.2695	1.5282	0.6528
-25.8542	-10.7298	-53.1593	0.2712	1.5070	0.6652
-25.8573	-10.7303	-53.1717	0.2744	1.4786	0.6858
-25.8599	-10.7317	-53.1818	0.2761	1.4536	0.6995
-25.8628	-10.7324	-53.1932	0.2784	1.4272	0.7159
-25.8655	-10.7343	-53.2040	0.2794	1.4003	0.7276
-26.0974	-11.6686	-53.8707	0.1062	0.4613	0.2962
-26.1039	-11.6601	-53.9000	0.1071	0.4535	0.3019
-26.1155	-11.6758	-53.9418	0.1061	0.4396	0.3019
-26.1270	-11.6850	-53.9851	0.1056	0.4264	0.3034
-26.1331	-11.6671	-54.0147	0.1069	0.4195	0.3105
-26.1376	-11.6520	-54.0367	0.1079	0.4143	0.3161
-26.1457	-11.6455	-54.0706	0.1082	0.4051	0.3199
-26.1811	-11.6620	-54.2084	0.1059	0.3675	0.3213
-26.1870	-11.6446	-54.2368	0.1067	0.3606	0.3261
-26.2305	-11.6711	-54.4030	0.1026	0.3209	0.3210
-26.2659	-11.7048	-54.5348	0.0987	0.2936	0.3127
-26.3226	-11.7424	-54.7518	0.0930	0.2552	0.3009
-26.3341	-11.7304	-54.8010	0.0925	0.2468	0.3011
-26.3432	-11.7112	-54.8428	0.0923	0.2395	0.3024
-26.4085	-11.7386	-55.0958	0.0863	0.2050	0.2878
-26.4574	-11.7634	-55.2853	0.0819	0.1839	0.2762
-26.4802	-11.7646	-55.3763	0.0801	0.1744	0.2717
-26.5055	-11.7682	-55.4762	0.0782	0.1647	0.2666
-26.5240	-11.7550	-55.5535	0.0770	0.1570	0.2640
-26.8293	-11.8218	-56.7558	0.0579	0.0881	0.2070
-26.8451	-11.7757	-56.8320	0.0573	0.0835	0.2058
-27.0421	-11.7339	-57.6319	0.0490	0.0589	0.1796
-27.2050	-11.6652	-58.3020	0.0436	0.0444	0.1619
-25.5960	-11.4904	-51.9305	-0.0577	0.4820	-0.3671
-25.6100	-11.5198	-51.9785	-0.0529	0.4965	-0.3519
-25.6184	-11.5147	-52.0138	-0.0514	0.5101	-0.3493
-25.6250	-11.5254	-52.0377	-0.0491	0.5174	-0.3422
-25.6671	-11.5439	-52.2024	-0.0359	0.5742	-0.3048
-25.6733	-11.5555	-52.2240	-0.0333	0.5791	-0.2957
-25.6798	-11.5596	-52.2494	-0.0308	0.5869	-0.2879
-25.6924	-11.5736	-52.2966	-0.0256	0.5992	-0.2705
-25.6986	-11.5827	-52.3191	-0.0229	0.6039	-0.2611
-25.7125	-11.5524	-52.3836	-0.0182	0.6343	-0.2503
-25.7179	-11.5863	-52.3960	-0.0151	0.6267	-0.2358
-25.7311	-11.6027	-52.4443	-0.0092	0.6350	-0.2144
-25.7426	-11.6003	-52.4918	-0.0041	0.6485	-0.1975
-25.7495	-11.5780	-52.5259	-0.0010	0.6660	-0.1898
-25.7546	-11.5737	-52.5479	0.0015	0.6733	-0.1817
-25.7606	-11.5902	-52.5675	0.0044	0.6709	-0.1696
-25.7674	-11.5954	-52.5933	0.0076	0.6743	-0.1574
-25.7785	-11.6044	-52.6356	0.0130	0.6787	-0.1371
-25.7844	-11.6058	-52.6589	0.0158	0.6821	-0.1265
-25.7909	-11.6082	-52.6851	0.0191	0.6852	-0.1142
-25.7957	-11.6003	-52.7066	0.0217	0.6920	-0.1055
-25.8017	-11.5869	-52.7346	0.0253	0.7020	-0.0939
-25.8131	-11.5908	-52.7797	0.0311	0.7049	-0.0714
-25.8185	-11.6004	-52.7986	0.0334	0.7018	-0.0612
-25.8257	-11.6160	-52.8234	0.0363	0.6957	-0.0479
-25.8313	-11.6141	-52.8466	0.0392	0.6977	-0.0368
-25.8362	-11.6147	-52.8665	0.0416	0.6980	-0.0270
-25.8496	-11.6329	-52.9154	0.0470	0.6895	-0.0030
-25.8562	-11.6454	-52.9388	0.0493	0.6831	0.0081
-25.8615	-11.6487	-52.9593	0.0515	0.6809	0.0176
-25.8681	-11.6482	-52.9859	0.0544	0.6798	0.0299
-25.8730	-11.6458	-53.0063	0.0568	0.6795	0.0395
-25.8788	-11.6457	-53.0299	0.0594	0.6777	0.0504
-25.8844	-11.6443	-53.0536	0.0620	0.6761	0.0613
-25.8908	-11.6493	-53.0779	0.0642	0.6711	0.0718
-25.8973	-11.6476	-53.1046	0.0670	0.6685	0.0839
-25.9193	-11.6380	-53.1960	0.0764	0.6578	0.1246
-25.9257	-11.6425	-53.2213	0.0783	0.6511	0.1342
-25.8262	-10.7256	-53.0758	0.2374	1.6918	0.4862
-25.8286	-10.7256	-53.0853	0.2423	1.6739	0.5107
-25.8311	-10.7263	-53.0951	0.2465	1.6529	0.5339
-25.8332	-10.7264	-53.1036	0.2504	1.6359	0.5540
-25.8358	-10.7278	-53.1138	0.2539	1.6118	0.5752
-25.8383	-10.7290	-53.1243	0.2574	1.5877	0.5960
-25.8407	-10.7281	-53.1340	0.2616	1.5689	0.6183
-25.8434	-10.7288	-53.1446	0.2648	1.5446	0.6382
-25.8458	-10.7299	-53.1541	0.2672	1.5218	0.6542
-25.8487	-10.7297	-53.1659	0.2709	1.4960	0.6761
-25.8516	-10.7307	-53.1771	0.2733	1.4693	0.6933
-25.8543	-10.7329	-53.1877	0.2744	1.4420	0.7057
-25.8572	-10.7335	-53.1992	0.2766	1.4156	0.7219
-26.0854	-11.6794	-53.8574	0.1043	0.4645	0.2917
-26.0904	-11.6638	-53.8818	0.1058	0.4592	0.2990
-26.0972	-11.6567	-53.9122	0.1065	0.4509	0.3044
-26.1085	-11.6666	-53.9550	0.1059	0.4373	0.3059
-26.1198	-11.6755	-53.9984	0.1054	0.4241	0.3072
-26.1267	-11.6653	-54.0289	0.1061	0.4163	0.3123
-26.1448	-11.6233	-54.1139	0.1085	0.3947	0.3282
-26.1580	-11.6032	-54.1738	0.1092	0.3788	0.3354
-26.1647	-11.5901	-54.2045	0.1096	0.3706	0.3394
-26.1726	-11.5805	-54.2393	0.1097	0.3614	0.3423
-26.1816	-11.5735	-54.2776	0.1094	0.3513	0.3441
-26.3170	-11.7441	-54.7784	0.0916	0.2514	0.3002
-26.3222	-11.7150	-54.8074	0.0921	0.2457	0.3036
-26.3316	-11.6966	-54.8506	0.0918	0.2381	0.3047
-26.3347	-11.6616	-54.8728	0.0925	0.2331	0.3089
-26.4291	-11.7604	-55.2282	0.0823	0.1905	0.2796
-26.4498	-11.7591	-55.3121	0.0807	0.1811	0.2758
-26.5059	-11.7804	-55.5333	0.0762	0.1603	0.2632
-26.6530	-11.7867	-56.1279	0.0662	0.1171	0.2350
-26.8265	-11.8211	-56.8202	0.0566	0.0858	0.2050
-26.8421	-11.7741	-56.8964	0.0560	0.0813	0.2038
-26.8636	-11.7332	-56.9950	0.0551	0.0764	0.2015
-27.0505	-11.7421	-57.7502	0.0474	0.0566	0.1761
-27.2037	-11.6575	-58.3938	0.0425	0.0429	0.1599
-27.5231	-11.6396	-59.6939	0.0347	0.0284	0.1325
-27.5506	-11.5465	-59.8312	0.0341	0.0257	0.1308
-25.5925	-11.5207	-51.9217	-0.0546	0.4758	-0.3577
-25.6100	-11.5067	-51.9971	-0.0518	0.5046	-0.3545
-25.6169	-11.5143	-52.0231	-0.0497	0.5132	-0.3484
-25.6228	-11.5324	-52.0420	-0.0472	0.5176	-0.3394
-25.6289	-11.5484	-52.0624	-0.0448	0.5225	-0.3307
-25.6519	-11.5294	-52.1623	-0.0391	0.5623	-0.3190
-25.6701	-11.5661	-52.2266	-0.0314	0.5769	-0.2917
-25.6771	-11.5621	-52.2560	-0.0292	0.5881	-0.2856
-25.6837	-11.5611	-52.2835	-0.0268	0.5978	-0.2786
-25.6899	-11.5658	-52.3078	-0.0242	0.6047	-0.2701
-25.7146	-11.5833	-52.4041	-0.0137	0.6297	-0.2343
-25.7208	-11.5811	-52.4301	-0.0111	0.6382	-0.2259
-25.7269	-11.5823	-52.4548	-0.0084	0.6448	-0.2166
-25.7330	-11.5773	-52.4812	-0.0056	0.6540	-0.2081
-25.7389	-11.5670	-52.5086	-0.0029	0.6655	-0.2001
-25.7456	-11.5656	-52.5362	0.0003	0.6732	-0.1891
-25.7514	-11.5765	-52.5570	0.0032	0.6738	-0.1777
-25.7565	-11.5882	-52.5747	0.0056	0.6729	-0.1675
-25.7624	-11.5926	-52.5975	0.0084	0.6760	-0.1567
-25.7691	-11.6050	-52.6215	0.0116	0.6754	-0.1437
-25.7753	-11.6213	-52.6421	0.0143	0.6720	-0.1318
-25.7859	-11.5928	-52.6942	0.0203	0.6933	-0.1130
-25.7914	-11.5882	-52.7180	0.0233	0.6989	-0.1024
-25.7966	-11.5782	-52.7421	0.0264	0.7068	-0.0920
-25.8024	-11.5837	-52.7642	0.0292	0.7066	-0.0804
-25.8078	-11.5808	-52.7871	0.0322	0.7102	-0.0693
-25.8142	-11.5985	-52.8082	0.0346	0.7030	-0.0572
-25.8197	-11.5969	-52.8312	0.0375	0.7052	-0.0460
-25.8238	-11.5729	-52.8550	0.0411	0.7184	-0.0353
-25.8391	-11.6416	-52.8986	0.0446	0.6853	-0.0115
-25.8496	-11.6288	-52.9452	0.0504	0.6906	0.0107
-25.8540	-11.6220	-52.9652	0.0529	0.6931	0.0204
-25.8609	-11.6377	-52.9890	0.0549	0.6844	0.0312
-25.8677	-11.6509	-53.0134	0.0570	0.6766	0.0418
-25.8798	-11.6498	-53.0640	0.0623	0.6724	0.0649
-25.8905	-11.6468	-53.1083	0.0670	0.6684	0.0849
-25.9198	-11.6455	-53.2296	0.0781	0.6483	0.1364
-25.8181	-10.7341	-53.0714	0.2275	1.6786	0.4565
-25.8193	-10.7257	-53.0785	0.2360	1.6880	0.4886
-25.8219	-10.7253	-53.0891	0.2415	1.6690	0.5165
-25.8243	-10.7260	-53.0990	0.2457	1.6479	0.5396
-25.8269	-10.7275	-53.1092	0.2492	1.6239	0.5611
-25.8291	-10.7283	-53.1181	0.2524	1.6040	0.5797
-25.8313	-10.7276	-53.1279	0.2566	1.5853	0.6025
-25.8335	-10.7280	-53.1369	0.2596	1.5652	0.6203
-25.8363	-10.7297	-53.1478	0.2623	1.5384	0.6389
-25.8392	-10.7297	-53.1596	0.2660	1.5127	0.6614
-25.8420	-10.7308	-53.1708	0.2684	1.4860	0.6788
-25.8448	-10.7318	-53.1820	0.2707	1.4594	0.6959
-25.8476	-10.7325	-53.1934	0.2729	1.4330	0.7124
-25.8501	-10.7351	-53.2030	0.2733	1.4077	0.7212
-26.0689	-11.6789	-53.8331	0.1030	0.4724	0.2885
-26.0731	-11.6604	-53.8555	0.1047	0.4682	0.2966
-26.0813	-11.6603	-53.8902	0.1050	0.4578	0.3008
-26.0908	-11.6646	-53.9282	0.1049	0.4461	0.3037
-26.1016	-11.6726	-53.9701	0.1045	0.4331	0.3056
-26.1099	-11.6742	-54.0036	0.1044	0.4235	0.3080
-26.1178	-11.6638	-54.0389	0.1050	0.4143	0.3133
-26.1592	-11.6379	-54.2174	0.1053	0.3671	0.3278
-26.1632	-11.6146	-54.2403	0.1064	0.3615	0.3339
-26.1681	-11.5945	-54.2661	0.1072	0.3550	0.3391
-26.2548	-11.6719	-54.6009	0.0969	0.2811	0.3180
-26.3148	-11.7195	-54.8338	0.0904	0.2422	0.3023
-26.4229	-11.7668	-55.2656	0.0805	0.1870	0.2776
-26.4445	-11.7670	-55.3541	0.0789	0.1775	0.2734
-26.4566	-11.7443	-55.4103	0.0783	0.1707	0.2729
-26.5079	-11.7499	-55.6194	0.0743	0.1517	0.2620
-26.7833	-11.8328	-56.7288	0.0569	0.0900	0.2083
-26.8032	-11.7943	-56.8213	0.0561	0.0850	0.2063
-26.8931	-11.7800	-57.1946	0.0520	0.0720	0.1933
-26.9878	-11.7501	-57.5944	0.0482	0.0605	0.1810
-27.4988	-11.6117	-59.7362	0.0341	0.0276	0.1322
-25.5907	-11.5159	-51.9321	-0.0529	0.4793	-0.3581
-25.5960	-11.5410	-51.9468	-0.0504	0.4819	-0.3481
-25.6126	-11.5296	-52.0193	-0.0473	0.5090	-0.3433
-25.6172	-11.5508	-52.0325	-0.0450	0.5107	-0.3342
-25.6254	-11.5528	-52.0661	-0.0428	0.5223	-0.3284
-25.6397	-11.5545	-52.1251	-0.0388	0.5429	-0.3175
-25.6541	-11.5458	-52.1875	-0.0347	0.5670	-0.3077
-25.6734	-11.5552	-52.2654	-0.0276	0.5921	-0.2854
-25.6796	-11.5613	-52.2894	-0.0251	0.5987	-0.2768
-25.6979	-11.5768	-52.3614	-0.0174	0.6176	-0.2504
-25.7041	-11.5802	-52.3858	-0.0148	0.6241	-0.2415
-25.7102	-11.5784	-52.4120	-0.0123	0.6326	-0.2332
-25.7162	-11.5790	-52.4369	-0.0096	0.6397	-0.2243
-25.7221	-11.5799	-52.4613	-0.0069	0.6463	-0.2151
-25.7287	-11.5863	-52.4872	-0.0039	0.6510	-0.2036
-25.7346	-11.5730	-52.5156	-0.0011	0.6637	-0.1960
-25.7396	-11.5622	-52.5396	0.0013	0.6743	-0.1889
-25.7462	-11.5757	-52.5630	0.0045	0.6743	-0.1757
-25.7513	-11.5893	-52.5802	0.0068	0.6725	-0.1653
-25.7572	-11.6005	-52.6015	0.0096	0.6722	-0.1538
-25.7628	-11.6044	-52.6245	0.0124	0.6750	-0.1431
-25.7694	-11.6095	-52.6504	0.0155	0.6775	-0.1307
-25.7798	-11.5797	-52.7022	0.0216	0.6995	-0.1118
-25.7855	-11.5859	-52.7243	0.0243	0.6996	-0.1003
-25.7917	-11.6037	-52.7450	0.0269	0.6937	-0.0881
-25.7971	-11.6002	-52.7684	0.0297	0.6978	-0.0773
-25.8013	-11.5871	-52.7896	0.0325	0.7062	-0.0682
-25.8083	-11.6059	-52.8140	0.0353	0.6987	-0.0546
-25.8138	-11.6072	-52.8368	0.0380	0.6994	-0.0434
-25.8181	-11.5981	-52.8572	0.0407	0.7047	-0.0338
-25.8331	-11.6487	-52.9051	0.0449	0.6811	-0.0092
-25.8387	-11.6475	-52.9286	0.0476	0.6814	0.0017
-25.8437	-11.6489	-52.9491	0.0498	0.6802	0.0113
-25.8492	-11.6469	-52.9727	0.0524	0.6802	0.0223
-25.8550	-11.6495	-52.9966	0.0549	0.6777	0.0332
-25.8614	-11.6586	-53.0208	0.0570	0.6718	0.0438
-25.8670	-11.6564	-53.0446	0.0596	0.6708	0.0546
-25.8725	-11.6538	-53.0684	0.0621	0.6696	0.0655
-25.8810	-11.6236	-53.1126	0.0682	0.6777	0.0885
-25.8941	-11.6402	-53.1631	0.0719	0.6625	0.1086
-25.9009	-11.6418	-53.1909	0.0743	0.6570	0.1201
-25.9064	-11.6451	-53.2129	0.0760	0.6515	0.1286
-25.9125	-11.6464	-53.2379	0.0780	0.6461	0.1385
-25.8097	-10.7280	-53.0744	0.2288	1.6887	0.4663
-25.8116	-10.7229	-53.0837	0.2364	1.6849	0.4989
-25.8136	-10.7233	-53.0920	0.2401	1.6682	0.5195
-25.8160	-10.7249	-53.1022	0.2438	1.6443	0.5416
-25.8190	-10.7255	-53.1148	0.2487	1.6177	0.5701
-25.8211	-10.7253	-53.1234	0.2522	1.6004	0.5896
-25.8230	-10.7264	-53.1312	0.2545	1.5818	0.6044
-25.8258	-10.7268	-53.1429	0.2583	1.5561	0.6279
-25.8282	-10.7280	-53.1523	0.2607	1.5334	0.6442
-25.8306	-10.7276	-53.1626	0.2640	1.5118	0.6643
-25.8336	-10.7290	-53.1754	0.2665	1.4810	0.6839
-25.8361	-10.7305	-53.1855	0.2681	1.4561	0.6976
-25.8391	-10.7320	-53.1974	0.2698	1.4273	0.7129
-25.8422	-10.7342	-53.2098	0.2709	1.3966	0.7266
-26.0592	-11.6769	-53.8436	0.1020	0.4703	0.2899
-26.0671	-11.6758	-53.8770	0.1025	0.4606	0.2945
-26.0744	-11.6706	-53.9087	0.1031	0.4519	0.2996
-26.0823	-11.6680	-53.9425	0.1034	0.4423	0.3038
-26.0963	-11.6525	-54.0053	0.1046	0.4255	0.3136
-26.1075	-11.6610	-54.0497	0.1039	0.4123	0.3145
-26.1162	-11.6641	-54.0862	0.1035	0.4020	0.3159
-26.1278	-11.6712	-54.1323	0.1028	0.3892	0.3165
-26.1573	-11.6667	-54.2569	0.1018	0.3574	0.3216
-26.1602	-11.6023	-54.2876	0.1051	0.3504	0.3372
-26.1649	-11.5821	-54.3141	0.1057	0.3437	0.3421
-26.2395	-11.7052	-54.5901	0.0945	0.2848	0.3123
-26.2509	-11.6982	-54.6398	0.0939	0.2753	0.3123
-26.2647	-11.6970	-54.6977	0.0928	0.2648	0.3108
-26.3497	-11.7078	-55.0509	0.0852	0.2110	0.2949
-26.4294	-11.7611	-55.3682	0.0777	0.1763	0.2736
-26.4830	-11.7772	-55.5875	0.0735	0.1563	0.2616
-26.5228	-11.7532	-55.7622	0.0708	0.1408	0.2551
-26.7925	-11.8002	-56.8776	0.0547	0.0834	0.2043
-26.8753	-11.7756	-57.2310	0.0510	0.0710	0.1925
-27.0050	-11.7051	-57.7932	0.0460	0.0550	0.1763
-27.4648	-11.5906	-59.7510	0.0336	0.0272	0.1324
-25.5838	-11.5411	-51.9129	-0.0505	0.4696	-0.3512
-25.5944	-11.5250	-51.9625	-0.0492	0.4885	-0.3516
-25.6029	-11.5162	-52.0010	-0.0479	0.5033	-0.3501
-25.6093	-11.5280	-52.0245	-0.0457	0.5103	-0.3429
-25.6143	-11.5432	-52.0413	-0.0436	0.5142	-0.3353
-25.6203	-11.5593	-52.0620	-0.0412	0.5190	-0.3266
-25.6374	-11.5310	-52.1428	-0.0378	0.5529	-0.3221
-25.6432	-11.5454	-52.1633	-0.0353	0.5574	-0.3129
-25.6694	-11.5448	-52.2743	-0.0263	0.5970	-0.2865
-25.6869	-11.5769	-52.3393	-0.0185	0.6095	-0.2573
-25.6931	-11.5751	-52.3661	-0.0161	0.6185	-0.2495
-25.6991	-11.5775	-52.3909	-0.0135	0.6254	-0.2407
-25.7051	-11.5738	-52.4176	-0.0110	0.6347	-0.2327
-25.7111	-11.5714	-52.4435	-0.0084	0.6432	-0.2242
-25.7176	-11.5771	-52.4695	-0.0054	0.6485	-0.2130
-25.7225	-11.5881	-52.4874	-0.0030	0.6492	-0.2033
-25.7283	-11.5902	-52.5114	-0.0003	0.6546	-0.1935
-25.7340	-11.5908	-52.5354	0.0024	0.6603	-0.1839
-25.7398	-11.5979	-52.5577	0.0051	0.6627	-0.1731
-25.7463	-11.6043	-52.5836	0.0081	0.6657	-0.1610
-25.7520	-11.6076	-52.6069	0.0108	0.6691	-0.1505
-25.7569	-11.6030	-52.6287	0.0133	0.6752	-0.1420
-25.7624	-11.5987	-52.6533	0.0161	0.6816	-0.1319
-25.7685	-11.5964	-52.6803	0.0193	0.6872	-0.1200
-25.7738	-11.5901	-52.7047	0.0222	0.6938	-0.1097
-25.7793	-11.5913	-52.7277	0.0250	0.6963	-0.0986
-25.7843	-11.5998	-52.7466	0.0273	0.6946	-0.0885
-25.7906	-11.6026	-52.7725	0.0304	0.6960	-0.0758
-25.8016	-11.6033	-52.8186	0.0359	0.6993	-0.0534
-25.8070	-11.6026	-52.8417	0.0386	0.7009	-0.0421
-25.8123	-11.6044	-52.8645	0.0413	0.7008	-0.0308
-25.8185	-11.6268	-52.8838	0.0430	0.6904	-0.0206
-25.8246	-11.6370	-52.9069	0.0453	0.6857	-0.0094
-25.8294	-11.6257	-52.9304	0.0483	0.6908	0.0017
-25.8348	-11.6251	-52.9537	0.0509	0.6905	0.0129
-25.8413	-11.6370	-52.9774	0.0530	0.6839	0.0238
-25.8479	-11.6413	-53.0044	0.0557	0.6803	0.0362
-25.8524	-11.6285	-53.0272	0.0587	0.6845	0.0476
-25.8576	-11.6345	-53.0481	0.0605	0.6799	0.0569
-25.8656	-11.6596	-53.0744	0.0619	0.6659	0.0666
-25.8718	-11.6654	-53.0993	0.0639	0.6605	0.0770
-25.8765	-11.6550	-53.1222	0.0666	0.6620	0.0880
-25.8925	-11.6430	-53.1936	0.0738	0.6557	0.1200
-25.8991	-11.6505	-53.2198	0.0754	0.6478	0.1295
-25.9046	-11.6469	-53.2440	0.0776	0.6445	0.1398
-25.8012	-10.7239	-53.0772	0.2288	1.6935	0.4727
-25.8035	-10.7217	-53.0873	0.2350	1.6807	0.5027
-25.8059	-10.7226	-53.0972	0.2391	1.6597	0.5261
-25.8081	-10.7246	-53.1063	0.2419	1.6371	0.5445
-25.8108	-10.7247	-53.1174	0.2464	1.6147	0.5703
-25.8129	-10.7240	-53.1271	0.2505	1.5962	0.5932
-25.8150	-10.7246	-53.1361	0.2534	1.5761	0.6113
-25.8177	-10.7264	-53.1470	0.2559	1.5493	0.6301
-25.8201	-10.7261	-53.1573	0.2593	1.5277	0.6507
-25.8225	-10.7270	-53.1668	0.2614	1.5051	0.6665
-25.8250	-10.7273	-53.1776	0.2641	1.4809	0.6850
-25.8281	-10.7285	-53.1905	0.2664	1.4504	0.7038
-25.8308	-10.7306	-53.2012	0.2674	1.4233	0.7159
-25.8347	-10.7395	-53.2157	0.2649	1.3789	0.7184
-26.0430	-11.6465	-53.8330	0.1030	0.4783	0.2965
-26.0555	-11.6670	-53.8800	0.1019	0.4614	0.2968
-26.0646	-11.6717	-53.9180	0.1018	0.4497	0.2999
-26.0843	-11.6453	-54.0091	0.1038	0.4257	0.3155
-26.0961	-11.6569	-54.0558	0.1029	0.4116	0.3157
-26.1064	-11.6612	-54.0984	0.1024	0.3996	0.3171
-26.1182	-11.6747	-54.1446	0.1012	0.3865	0.3160
-26.1277	-11.6737	-54.1858	0.1009	0.3759	0.3179
-26.1346	-11.6622	-54.2188	0.1013	0.3678	0.3217
-26.1383	-11.6384	-54.2414	0.1024	0.3626	0.3280
-26.1454	-11.6264	-54.2749	0.1026	0.3543	0.3313
-26.1522	-11.6130	-54.3076	0.1028	0.3461	0.3347
-26.2253	-11.7385	-54.5811	0.0922	0.2878	0.3065
-26.2310	-11.7106	-54.6148	0.0927	0.2810	0.3109
-26.2740	-11.7165	-54.7957	0.0890	0.2496	0.3046
-26.2810	-11.6932	-54.8322	0.0891	0.2428	0.3068
-26.2924	-11.6809	-54.8839	0.0884	0.2342	0.3065
-26.3501	-11.7407	-55.1115	0.0821	0.2052	0.2882
-26.3675	-11.7376	-55.1876	0.0807	0.1958	0.2851
-26.4349	-11.7546	-55.4689	0.0750	0.1665	0.2697
-26.5178	-11.7712	-55.8159	0.0688	0.1381	0.2515
-26.7578	-11.8399	-56.8169	0.0544	0.0874	0.2055
-26.7907	-11.8209	-56.9622	0.0529	0.0814	0.2009
-26.8195	-11.7923	-57.0932	0.0517	0.0761	0.1971
-26.8268	-11.7292	-57.1425	0.0515	0.0723	0.1973
-27.0121	-11.7328	-57.9309	0.0442	0.0532	0.1720
-25.6065	-11.5324	-52.0255	-0.0442	0.5097	-0.3412
-25.6120	-11.5538	-52.0428	-0.0417	0.5128	-0.3315
-25.6189	-11.5580	-52.0711	-0.0397	0.5220	-0.3256
-25.6384	-11.5768	-52.1498	-0.0332	0.5458	-0.3050
-25.6962	-11.5444	-52.4078	-0.0127	0.6414	-0.2453
-25.7017	-11.5591	-52.4271	-0.0100	0.6422	-0.2339
-25.7074	-11.5727	-52.4472	-0.0073	0.6432	-0.2227
-25.7138	-11.5870	-52.4707	-0.0042	0.6446	-0.2101
-25.7187	-11.5894	-52.4914	-0.0019	0.6492	-0.2017
-25.7244	-11.5905	-52.5156	0.0007	0.6550	-0.1921
-25.7308	-11.5928	-52.5424	0.0037	0.6606	-0.1808
-25.7358	-11.6067	-52.5598	0.0060	0.6590	-0.1706
-25.7416	-11.6134	-52.5824	0.0086	0.6612	-0.1599
-25.7533	-11.6045	-52.6355	0.0145	0.6753	-0.1390
-25.7584	-11.5854	-52.6629	0.0174	0.6888	-0.1303
-25.7633	-11.5967	-52.6812	0.0197	0.6867	-0.1199
-25.7697	-11.6047	-52.7065	0.0227	0.6867	-0.1070
-25.7739	-11.5897	-52.7289	0.0254	0.6968	-0.0986
-25.7805	-11.6008	-52.7537	0.0283	0.6945	-0.0854
-25.7856	-11.5933	-52.7778	0.0312	0.7006	-0.0746
-25.7898	-11.5704	-52.8028	0.0345	0.7141	-0.0644
-25.7959	-11.5869	-52.8242	0.0369	0.7073	-0.0523
-25.8021	-11.6021	-52.8461	0.0392	0.7010	-0.0404
-25.8069	-11.6068	-52.8658	0.0414	0.6994	-0.0305
-25.8136	-11.6173	-52.8917	0.0441	0.6948	-0.0176
-25.8195	-11.6243	-52.9148	0.0465	0.6914	-0.0063
-25.8249	-11.6239	-52.9382	0.0491	0.6912	0.0050
-25.8304	-11.6252	-52.9616	0.0516	0.6899	0.0162
-25.8360	-11.6362	-52.9823	0.0534	0.6838	0.0256
-25.8417	-11.6387	-53.0060	0.0558	0.6812	0.0366
-25.8470	-11.6275	-53.0320	0.0590	0.6844	0.0494
-25.8509	-11.6113	-53.0542	0.0621	0.6899	0.0611
-25.8560	-11.6076	-53.0774	0.0646	0.6891	0.0724
-25.8609	-11.6088	-53.0979	0.0666	0.6859	0.0819
-25.8823	-11.6542	-53.1766	0.0711	0.6540	0.1107
-25.8935	-11.6519	-53.2259	0.0753	0.6461	0.1312
-25.7954	-10.7225	-53.0811	0.2293	1.6909	0.4816
-25.7975	-10.7215	-53.0904	0.2342	1.6761	0.5072
-25.7997	-10.7237	-53.0995	0.2371	1.6534	0.5263
-25.8025	-10.7248	-53.1110	0.2413	1.6283	0.5517
-25.8047	-10.7243	-53.1208	0.2455	1.6099	0.5753
-25.8069	-10.7245	-53.1309	0.2490	1.5886	0.5971
-25.8091	-10.7251	-53.1399	0.2518	1.5686	0.6151
-25.8115	-10.7273	-53.1497	0.2537	1.5433	0.6306
-25.8147	-10.7277	-53.1631	0.2574	1.5136	0.6555
-25.8166	-10.7282	-53.1712	0.2593	1.4951	0.6690
-25.8195	-10.7287	-53.1836	0.2621	1.4671	0.6894
-25.8220	-10.7301	-53.1938	0.2635	1.4423	0.7030
-25.8246	-10.7322	-53.2046	0.2645	1.4155	0.7150
-26.0413	-11.6698	-53.8575	0.1006	0.4683	0.2930
-26.0485	-11.6659	-53.8895	0.1012	0.4593	0.2981
-26.0557	-11.6621	-53.9224	0.1016	0.4500	0.3029
-26.0652	-11.6674	-53.9619	0.1014	0.4380	0.3054
-26.0748	-11.6717	-54.0020	0.1011	0.4262	0.3078
-26.0820	-11.6696	-54.0334	0.1012	0.4175	0.3108
-26.0899	-11.6603	-54.0701	0.1017	0.4079	0.3157
-26.0958	-11.6523	-54.0982	0.1020	0.4007	0.3194
-26.1309	-11.6745	-54.2431	0.0993	0.3619	0.3194
-26.1351	-11.6159	-54.2788	0.1022	0.3539	0.3340
-26.1459	-11.6163	-54.3253	0.1014	0.3424	0.3341
-26.2190	-11.6974	-54.6166	0.0923	0.2808	0.3134
-26.2672	-11.7197	-54.8176	0.0876	0.2466	0.3036
-26.2734	-11.6944	-54.8518	0.0878	0.2402	0.3061
-26.3419	-11.7413	-55.1324	0.0809	0.2030	0.2875
-26.3869	-11.7634	-55.3209	0.0768	0.1823	0.2763
-26.4023	-11.7506	-55.3910	0.0758	0.1744	0.2742
-26.4582	-11.7740	-55.6250	0.0712	0.1537	0.2608
-26.7023	-11.8333	-56.6598	0.0557	0.0937	0.2120
-26.7862	-11.8299	-57.0222	0.0517	0.0799	0.1987
-26.8177	-11.8045	-57.1654	0.0503	0.0744	0.1945
-26.8438	-11.7670	-57.2890	0.0493	0.0695	0.1914
-26.9715	-11.7796	-57.8372	0.0443	0.0566	0.1740
-27.0532	-11.7051	-58.2116	0.0416	0.0475	0.1651
-27.1630	-11.6492	-58.7012	0.0384	0.0390	0.1537
-27.3924	-11.6577	-59.6896	0.0330	0.0291	0.1334
-25.6020	-11.4883	-52.0338	-0.0458	0.5185	-0.3558
-25.6059	-11.5262	-52.0393	-0.0427	0.5152	-0.3415
-25.6326	-11.5349	-52.1532	-0.0347	0.5551	-0.3187
-25.6630	-11.5667	-52.2760	-0.0231	0.5907	-0.2789
-25.6750	-11.5734	-52.3264	-0.0183	0.6054	-0.2625
-25.6867	-11.5885	-52.3725	-0.0133	0.6152	-0.2437
-25.6928	-11.5740	-52.4038	-0.0109	0.6295	-0.2378
-25.6986	-11.5747	-52.4287	-0.0084	0.6366	-0.2289
-25.7218	-11.5596	-52.5346	0.0024	0.6718	-0.1925
-25.7266	-11.5784	-52.5500	0.0047	0.6678	-0.1815
-25.7324	-11.5998	-52.5684	0.0073	0.6633	-0.1688
-25.7379	-11.6043	-52.5913	0.0099	0.6663	-0.1583
-25.7440	-11.6003	-52.6192	0.0129	0.6736	-0.1473
-25.7546	-11.5915	-52.6680	0.0184	0.6864	-0.1272
-25.7597	-11.5845	-52.6924	0.0212	0.6936	-0.1171
-25.7649	-11.5820	-52.7158	0.0240	0.6982	-0.1064
-25.7699	-11.5762	-52.7397	0.0269	0.7043	-0.0957
-25.7808	-11.5841	-52.7845	0.0323	0.7053	-0.0727
-25.7862	-11.5880	-52.8071	0.0349	0.7052	-0.0612
-25.7918	-11.5935	-52.8296	0.0375	0.7040	-0.0496
-25.7972	-11.5966	-52.8523	0.0401	0.7035	-0.0381
-25.8027	-11.6132	-52.8717	0.0419	0.6960	-0.0279
-25.8097	-11.6286	-52.8976	0.0444	0.6890	-0.0149
-25.8138	-11.6196	-52.9179	0.0469	0.6933	-0.0053
-25.8192	-11.6213	-52.9412	0.0494	0.6922	0.0059
-25.8256	-11.6344	-52.9650	0.0515	0.6851	0.0171
-25.8318	-11.6360	-52.9918	0.0542	0.6831	0.0296
-25.8352	-11.6197	-53.0113	0.0569	0.6895	0.0396
-25.8403	-11.6085	-53.0370	0.0602	0.6928	0.0526
-25.8456	-11.6091	-53.0604	0.0625	0.6901	0.0637
-25.8510	-11.6093	-53.0839	0.0649	0.6874	0.0747
-25.8566	-11.6110	-53.1077	0.0671	0.6834	0.0856
-25.8615	-11.6128	-53.1285	0.0690	0.6796	0.0949
-25.8670	-11.6138	-53.1524	0.0711	0.6754	0.1056
-25.8743	-11.6300	-53.1793	0.0725	0.6637	0.1150
-25.8818	-11.6466	-53.2069	0.0737	0.6518	0.1239
-25.8881	-11.6530	-53.2331	0.0753	0.6443	0.1334
-25.7896	-10.7231	-53.0848	0.2284	1.6831	0.4865
-25.7917	-10.7244	-53.0935	0.2317	1.6636	0.5066
-25.7941	-10.7261	-53.1038	0.2352	1.6399	0.5290
-25.7964	-10.7258	-53.1136	0.2394	1.6218	0.5529
-25.7988	-10.7247	-53.1246	0.2442	1.6021	0.5797
-25.8010	-10.7249	-53.1349	0.2477	1.5807	0.6017
-25.8034	-10.7248	-53.1451	0.2511	1.5592	0.6231
-25.8059	-10.7255	-53.1558	0.2540	1.5350	0.6430
-25.8079	-10.7271	-53.1642	0.2555	1.5138	0.6558
-25.8108	-10.7278	-53.1766	0.2583	1.4858	0.6766
-25.8135	-10.7287	-53.1879	0.2604	1.4593	0.6937
-25.8159	-10.7301	-53.1982	0.2618	1.4346	0.7072
-25.8188	-10.7314	-53.2102	0.2633	1.4061	0.7223
-26.0296	-11.6461	-53.8533	0.1014	0.4731	0.2991
-26.0413	-11.6637	-53.8990	0.1005	0.4572	0.2997
-26.0503	-11.6687	-53.9379	0.1003	0.4453	0.3026
-26.0576	-11.6639	-53.9710	0.1007	0.4362	0.3071
-26.0660	-11.6632	-54.0077	0.1007	0.4258	0.3105
-26.0794	-11.6462	-54.0715	0.1016	0.4089	0.3195
-26.0876	-11.6474	-54.1068	0.1013	0.3991	0.3212
-26.1201	-11.6989	-54.2340	0.0971	0.3640	0.3136
-26.1227	-11.6713	-54.2538	0.0984	0.3599	0.3205
-26.1273	-11.6505	-54.2799	0.0992	0.3538	0.3259
-26.1338	-11.6364	-54.3125	0.0995	0.3460	0.3295
-26.1779	-11.6707	-54.4947	0.0948	0.3050	0.3211
-26.2133	-11.7083	-54.6387	0.0905	0.2775	0.3112
-26.2504	-11.6943	-54.8049	0.0878	0.2482	0.3082
-26.2564	-11.6692	-54.8387	0.0880	0.2417	0.3108
-26.2596	-11.6364	-54.8629	0.0885	0.2364	0.3147
-26.3781	-11.7613	-55.3433	0.0757	0.1802	0.2757
-26.3973	-11.7574	-55.4283	0.0742	0.1713	0.2720
-26.4496	-11.7724	-55.6522	0.0700	0.1516	0.2599
-26.4678	-11.7580	-55.7361	0.0689	0.1441	0.2570
-26.6927	-11.8290	-56.6982	0.0547	0.0921	0.2109
-26.8153	-11.8097	-57.2392	0.0490	0.0725	0.1922
-27.0144	-11.7512	-58.1288	0.0417	0.0503	0.1668
-27.1569	-11.6415	-58.7846	0.0375	0.0379	0.1521
-25.5900	-11.5177	-51.9857	-0.0451	0.4967	-0.3515
-25.6102	-11.5299	-52.0715	-0.0394	0.5260	-0.3353
-25.6260	-11.5076	-52.1482	-0.0358	0.5583	-0.3296
-25.6373	-11.5351	-52.1894	-0.0310	0.5677	-0.3110
-25.6960	-11.5716	-52.4375	-0.0069	0.6398	-0.2269
-25.7071	-11.5915	-52.4806	-0.0017	0.6446	-0.2057
-25.7126	-11.5822	-52.5081	0.0009	0.6553	-0.1976
-25.7188	-11.5819	-52.5358	0.0038	0.6624	-0.1867
-25.7236	-11.5882	-52.5550	0.0061	0.6645	-0.1773
-25.7292	-11.6026	-52.5753	0.0086	0.6631	-0.1657
-25.7355	-11.6049	-52.6021	0.0116	0.6678	-0.1540
-25.7406	-11.5922	-52.6286	0.0144	0.6785	-0.1451
-25.7457	-11.5840	-52.6538	0.0172	0.6868	-0.1354
-25.7508	-11.5783	-52.6781	0.0199	0.6937	-0.1252
-25.7562	-11.5859	-52.6998	0.0225	0.6936	-0.1138
-25.7607	-11.5849	-52.7200	0.0249	0.6970	-0.1044
-25.7661	-11.5918	-52.7420	0.0275	0.6965	-0.0929
-25.7718	-11.6024	-52.7638	0.0299	0.6939	-0.0813
-25.7770	-11.6026	-52.7867	0.0326	0.6960	-0.0702
-25.7828	-11.5998	-52.8132	0.0357	0.6995	-0.0577
-25.7870	-11.5930	-52.8336	0.0381	0.7040	-0.0481
-25.7926	-11.5892	-52.8596	0.0412	0.7071	-0.0354
-25.7976	-11.5988	-52.8791	0.0432	0.7029	-0.0253
-25.8049	-11.6211	-52.9047	0.0455	0.6924	-0.0122
-25.8091	-11.6050	-52.9281	0.0485	0.7001	-0.0009
-25.8217	-11.6344	-52.9750	0.0525	0.6845	0.0212
-25.8271	-11.6351	-52.9986	0.0549	0.6829	0.0323
-25.8312	-11.6194	-53.0213	0.0579	0.6887	0.0438
-25.8354	-11.6084	-53.0439	0.0607	0.6920	0.0553
-25.8410	-11.6118	-53.0676	0.0629	0.6879	0.0663
-25.8464	-11.6129	-53.0911	0.0652	0.6846	0.0771
-25.8520	-11.6155	-53.1151	0.0673	0.6802	0.0879
-25.8577	-11.6187	-53.1393	0.0693	0.6752	0.0985
-25.8635	-11.6289	-53.1617	0.0707	0.6671	0.1069
-25.8706	-11.6440	-53.1887	0.0720	0.6562	0.1162
-25.8768	-11.6488	-53.2143	0.0738	0.6496	0.1260
-25.8833	-11.6580	-53.2411	0.0752	0.6408	0.1351
-25.7820	-10.7276	-53.0799	0.2218	1.6809	0.4627
-25.7834	-10.7233	-53.0870	0.2274	1.6794	0.4881
-25.7859	-10.7238	-53.0980	0.2321	1.6576	0.5153
-25.7882	-10.7245	-53.1081	0.2359	1.6368	0.5384
-25.7905	-10.7250	-53.1182	0.2395	1.6158	0.5611
-25.7925	-10.7249	-53.1268	0.2428	1.5987	0.5809
-25.7949	-10.7245	-53.1382	0.2469	1.5760	0.6062
-25.7971	-10.7259	-53.1477	0.2492	1.5533	0.6231
-25.7996	-10.7266	-53.1584	0.2519	1.5292	0.6428
-25.8021	-10.7270	-53.1692	0.2546	1.5051	0.6621
-25.8047	-10.7281	-53.1805	0.2568	1.4785	0.6798
-25.8071	-10.7296	-53.1908	0.2582	1.4537	0.6938
-25.8099	-10.7312	-53.2027	0.2597	1.4251	0.7093
-25.8128	-10.7325	-53.2148	0.2611	1.3968	0.7243
-26.0138	-11.6383	-53.8251	0.1009	0.4833	0.2973
-26.0263	-11.6616	-53.8735	0.0996	0.4655	0.2971
-26.0368	-11.6737	-53.9167	0.0990	0.4514	0.2988
-26.0434	-11.6670	-53.9481	0.0996	0.4430	0.3040
-26.0502	-11.6605	-53.9801	0.1001	0.4344	0.3088
-26.0577	-11.6612	-54.0132	0.1000	0.4249	0.3114
-26.0657	-11.6539	-54.0510	0.1004	0.4148	0.3161
-26.0709	-11.6390	-54.0785	0.1012	0.4080	0.3218
-26.1165	-11.7108	-54.2589	0.0954	0.3582	0.3116
-26.1157	-11.6703	-54.2679	0.0975	0.3570	0.3211
-26.1257	-11.5954	-54.3352	0.1004	0.3410	0.3393
-26.1519	-11.6087	-54.4471	0.0976	0.3148	0.3350
-26.1509	-11.5687	-54.4551	0.0994	0.3121	0.3435
-26.2330	-11.7054	-54.7773	0.0872	0.2536	0.3077
-26.2414	-11.6874	-54.8198	0.0870	0.2459	0.3090
-26.2492	-11.6675	-54.8605	0.0868	0.2386	0.3103
-26.3317	-11.7520	-55.1995	0.0778	0.1961	0.2838
-26.3500	-11.7571	-55.2802	0.0762	0.1871	0.2794
-26.3650	-11.7452	-55.3503	0.0751	0.1790	0.2773
-26.4196	-11.7713	-55.5839	0.0705	0.1577	0.2636
-26.6116	-11.8247	-56.4192	0.0575	0.1047	0.2225
-26.7743	-11.8247	-57.1397	0.0494	0.0762	0.1954
-26.7998	-11.7885	-57.2635	0.0484	0.0712	0.1922
-26.8883	-11.7571	-57.6673	0.0448	0.0598	0.1801
-27.0193	-11.7519	-58.2491	0.0404	0.0483	0.1638
-27.0359	-11.6802	-58.3446	0.0398	0.0449	0.1625
-27.1382	-11.6120	-58.8192	0.0369	0.0369	0.1519
-25.5927	-11.5045	-52.0149	-0.0432	0.5086	-0.3526
-25.5967	-11.5300	-52.0251	-0.0409	0.5089	-0.3423
-25.6041	-11.5375	-52.0556	-0.0386	0.5187	-0.3352
-25.6108	-11.5390	-52.0853	-0.0367	0.5291	-0.3300
-25.6164	-11.5570	-52.1045	-0.0343	0.5328	-0.3205
-25.6388	-11.5001	-52.2228	-0.0295	0.5878	-0.3161
-25.6554	-11.5314	-52.2876	-0.0221	0.6034	-0.2879
-25.6611	-11.5399	-52.3101	-0.0196	0.6088	-0.2786
-25.6661	-11.5672	-52.3242	-0.0169	0.6055	-0.2655
-25.6715	-11.5898	-52.3410	-0.0143	0.6042	-0.2534
-25.6775	-11.5844	-52.3696	-0.0120	0.6147	-0.2462
-25.6901	-11.5502	-52.4368	-0.0070	0.6468	-0.2338
-25.6948	-11.5532	-52.4572	-0.0047	0.6518	-0.2254
-25.7009	-11.5645	-52.4813	-0.0018	0.6544	-0.2131
-25.7064	-11.5639	-52.5057	0.0008	0.6614	-0.2037
-25.7176	-11.6163	-52.5395	0.0059	0.6491	-0.1773
-25.7222	-11.6032	-52.5642	0.0081	0.6600	-0.1705
-25.7276	-11.6039	-52.5883	0.0107	0.6648	-0.1604
-25.7329	-11.6033	-52.6124	0.0133	0.6700	-0.1504
-25.7391	-11.6068	-52.6387	0.0163	0.6735	-0.1383
-25.7439	-11.5944	-52.6648	0.0191	0.6836	-0.1290
-25.7489	-11.5875	-52.6893	0.0218	0.6908	-0.1189
-25.7540	-11.5851	-52.7129	0.0245	0.6954	-0.1082
-25.7592	-11.5853	-52.7359	0.0272	0.6985	-0.0972
-25.7643	-11.6026	-52.7536	0.0292	0.6923	-0.0866
-25.7703	-11.6053	-52.7794	0.0321	0.6937	-0.0740
-25.7746	-11.5884	-52.8040	0.0351	0.7040	-0.0636
-25.7789	-11.5868	-52.8239	0.0374	0.7062	-0.0539
-25.7855	-11.6012	-52.8487	0.0400	0.7004	-0.0407
-25.7904	-11.6119	-52.8681	0.0419	0.6959	-0.0307
-25.7963	-11.6224	-52.8910	0.0441	0.6913	-0.0193
-25.8018	-11.6165	-52.9175	0.0472	0.6943	-0.0066
-25.8073	-11.6202	-52.9408	0.0495	0.6922	0.0047
-25.8126	-11.6315	-52.9613	0.0513	0.6862	0.0143
-25.8175	-11.6265	-52.9845	0.0539	0.6876	0.0254
-25.8227	-11.6178	-53.0107	0.0569	0.6901	0.0382
-25.8268	-11.6132	-53.0307	0.0591	0.6907	0.0481
-25.8316	-11.6090	-53.0538	0.0616	0.6906	0.0594
-25.8369	-11.6103	-53.0773	0.0639	0.6874	0.0704
-25.8429	-11.6108	-53.1039	0.0664	0.6839	0.0827
-25.8485	-11.6142	-53.1281	0.0684	0.6789	0.0934
-25.8533	-11.6158	-53.1490	0.0702	0.6750	0.1026
-25.8598	-11.6262	-53.1747	0.0718	0.6661	0.1124
-25.8665	-11.6381	-53.2013	0.0732	0.6564	0.1218
-25.8726	-11.6428	-53.2268	0.0749	0.6497	0.1315
-25.7762	-10.7228	-53.0847	0.2251	1.6856	0.4792
-25.7784	-10.7229	-53.0943	0.2293	1.6680	0.5038
-25.7806	-10.7250	-53.1034	0.2320	1.6456	0.5227
-25.7832	-10.7262	-53.1150	0.2359	1.6207	0.5482
-25.7854	-10.7257	-53.1248	0.2399	1.6025	0.5716
-25.7872	-10.7245	-53.1332	0.2435	1.5881	0.5922
-25.7897	-10.7241	-53.1446	0.2474	1.5653	0.6171
-25.7919	-10.7262	-53.1545	0.2491	1.5400	0.6328
-25.7944	-10.7268	-53.1653	0.2518	1.5159	0.6523
-25.7967	-10.7286	-53.1754	0.2533	1.4909	0.6671
-25.7997	-10.7299	-53.1884	0.2556	1.4605	0.6866
-25.8020	-10.7304	-53.1983	0.2573	1.4382	0.7015
-25.8044	-10.7300	-53.2094	0.2596	1.4143	0.7191
-26.0082	-11.6682	-53.8289	0.0980	0.4784	0.2891
-26.0158	-11.6682	-53.8630	0.0983	0.4683	0.2938
-26.0250	-11.6751	-53.9021	0.0981	0.4560	0.2967
-26.0334	-11.6768	-53.9391	0.0982	0.4451	0.3003
-26.0383	-11.6624	-53.9656	0.0992	0.4389	0.3068
-26.0426	-11.6451	-53.9903	0.1004	0.4333	0.3138
-26.0520	-11.6502	-54.0319	0.0999	0.4210	0.3158
-26.0590	-11.6434	-54.0653	0.1002	0.4119	0.3198
-26.1039	-11.6412	-54.2674	0.0983	0.3581	0.3281
-26.1126	-11.6358	-54.3081	0.0980	0.3481	0.3299
-26.1247	-11.6421	-54.3612	0.0968	0.3354	0.3286
-26.1755	-11.7017	-54.5705	0.0905	0.2912	0.3142
-26.2018	-11.7036	-54.6876	0.0882	0.2694	0.3111
-26.2341	-11.7170	-54.8286	0.0851	0.2461	0.3043
-26.2336	-11.6734	-54.8399	0.0862	0.2426	0.3106
-26.2905	-11.7429	-55.0744	0.0796	0.2116	0.2907
-26.3097	-11.7477	-55.1589	0.0779	0.2012	0.2864
-26.3496	-11.7600	-55.3342	0.0744	0.1817	0.2769
-26.4027	-11.7859	-55.5644	0.0700	0.1604	0.2635
-26.4172	-11.7668	-55.6353	0.0691	0.1533	0.2618
-26.4368	-11.7579	-55.7275	0.0677	0.1453	0.2580
-26.4562	-11.7451	-55.8185	0.0664	0.1377	0.2545
-26.7466	-11.8411	-57.0922	0.0493	0.0784	0.1967
-26.8198	-11.8020	-57.4346	0.0462	0.0671	0.1865
-27.0360	-11.7574	-58.4195	0.0388	0.0458	0.1597
-27.1141	-11.6530	-58.8029	0.0365	0.0381	0.1520
-27.3347	-11.6557	-59.7950	0.0314	0.0284	0.1321
-25.5707	-11.5265	-51.9208	-0.0452	0.4723	-0.3554
-25.5943	-11.5151	-52.0312	-0.0404	0.5128	-0.3467
-25.5995	-11.5364	-52.0482	-0.0380	0.5159	-0.3368
-25.6054	-11.5499	-52.0705	-0.0358	0.5217	-0.3287
-25.6124	-11.5460	-52.1034	-0.0340	0.5340	-0.3245
-25.6499	-11.5509	-52.2724	-0.0213	0.5923	-0.2856
-25.6669	-11.5752	-52.3420	-0.0140	0.6084	-0.2578
-25.6726	-11.5772	-52.3674	-0.0116	0.6158	-0.2494
-25.6786	-11.5648	-52.3983	-0.0093	0.6294	-0.2431
-25.6843	-11.5535	-52.4278	-0.0069	0.6423	-0.2363
-25.6897	-11.5662	-52.4483	-0.0043	0.6439	-0.2251
-25.7007	-11.5840	-52.4922	0.0008	0.6495	-0.2039
-25.7223	-11.6005	-52.5858	0.0110	0.6653	-0.1625
-25.7284	-11.6026	-52.6126	0.0140	0.6699	-0.1508
-25.7330	-11.6029	-52.6334	0.0162	0.6738	-0.1417
-25.7379	-11.5898	-52.6598	0.0190	0.6844	-0.1325
-25.7426	-11.5761	-52.6856	0.0219	0.6951	-0.1230
-25.7483	-11.5752	-52.7121	0.0249	0.6996	-0.1106
-25.7536	-11.5804	-52.7342	0.0275	0.7002	-0.0992
-25.7591	-11.5921	-52.7558	0.0299	0.6972	-0.0872
-25.7642	-11.5906	-52.7791	0.0326	0.7003	-0.0761
-25.7692	-11.5906	-52.8020	0.0352	0.7023	-0.0649
-25.7744	-11.6050	-52.8208	0.0371	0.6967	-0.0546
-25.7799	-11.6015	-52.8471	0.0401	0.6998	-0.0420
-25.7950	-11.6100	-52.9132	0.0471	0.6972	-0.0093
-25.8018	-11.6257	-52.9394	0.0493	0.6893	0.0034
-25.8063	-11.6261	-52.9597	0.0514	0.6886	0.0131
-25.8105	-11.6131	-52.9826	0.0543	0.6938	0.0244
-25.8156	-11.6137	-53.0058	0.0566	0.6922	0.0356
-25.8210	-11.6159	-53.0293	0.0589	0.6894	0.0467
-25.8251	-11.6058	-53.0519	0.0616	0.6922	0.0582
-25.8314	-11.6108	-53.0787	0.0639	0.6869	0.0704
-25.8364	-11.6097	-53.1020	0.0662	0.6845	0.0814
-25.8409	-11.6097	-53.1226	0.0681	0.6817	0.0909
-25.8464	-11.6119	-53.1465	0.0701	0.6771	0.1015
-25.8528	-11.6234	-53.1722	0.0716	0.6678	0.1112
-25.8594	-11.6345	-53.1984	0.0730	0.6585	0.1207
-25.8653	-11.6391	-53.2239	0.0747	0.6518	0.1305
-25.7698	-10.7241	-53.0837	0.2225	1.6850	0.4708
-25.7723	-10.7225	-53.0953	0.2285	1.6682	0.5034
-25.7743	-10.7237	-53.1041	0.2314	1.6487	0.5233
-25.7765	-10.7244	-53.1141	0.2350	1.6279	0.5462
-25.7787	-10.7262	-53.1234	0.2374	1.6055	0.5643
-25.7811	-10.7251	-53.1344	0.2418	1.5858	0.5907
-25.7832	-10.7251	-53.1447	0.2451	1.5645	0.6122
-25.7854	-10.7264	-53.1542	0.2471	1.5420	0.6288
-25.7876	-10.7276	-53.1638	0.2491	1.5195	0.6451
-25.7901	-10.7289	-53.1750	0.2512	1.4931	0.6631
-25.7927	-10.7299	-53.1864	0.2532	1.4667	0.6807
-25.7949	-10.7305	-53.1963	0.2550	1.4445	0.6956
-25.7977	-10.7320	-53.2082	0.2563	1.4161	0.7109
-25.9972	-11.6590	-53.8186	0.0979	0.4833	0.2901
-26.0073	-11.6719	-53.8603	0.0974	0.4691	0.2922
-26.0164	-11.6789	-53.8994	0.0972	0.4568	0.2952
-26.0257	-11.6864	-53.9403	0.0968	0.4443	0.2977
-26.0304	-11.6761	-53.9648	0.0976	0.4383	0.3030
-26.0343	-11.6525	-53.9899	0.0991	0.4333	0.3117
-26.0397	-11.6403	-54.0186	0.0999	0.4260	0.3174
-26.0479	-11.6393	-54.0561	0.0998	0.4153	0.3203
-26.0582	-11.6460	-54.1006	0.0991	0.4025	0.3212
-26.0896	-11.7027	-54.2256	0.0947	0.3675	0.3126
-26.1005	-11.7074	-54.2744	0.0939	0.3556	0.3129
-26.1034	-11.6806	-54.2959	0.0950	0.3510	0.3194
-26.1113	-11.6350	-54.3464	0.0966	0.3394	0.3303
-26.1624	-11.6604	-54.5708	0.0914	0.2907	0.3222
-26.2102	-11.6874	-54.7806	0.0862	0.2532	0.3109
-26.2273	-11.6956	-54.8558	0.0845	0.2413	0.3068
-26.2751	-11.7417	-55.0584	0.0793	0.2141	0.2918
-26.3361	-11.7674	-55.3285	0.0737	0.1830	0.2766
-26.3820	-11.7792	-55.5336	0.0700	0.1632	0.2658
-26.3960	-11.7606	-55.6033	0.0691	0.1561	0.2641
-26.4392	-11.7501	-55.8032	0.0659	0.1394	0.2552
-26.5187	-11.8004	-56.1501	0.0602	0.1186	0.2358
-26.5385	-11.7791	-56.2470	0.0591	0.1121	0.2327
-26.7725	-11.8528	-57.2878	0.0469	0.0729	0.1901
-26.8405	-11.7982	-57.6164	0.0442	0.0625	0.1811
-26.8708	-11.7586	-57.7674	0.0431	0.0579	0.1775
-27.0943	-11.6796	-58.8099	0.0361	0.0387	0.1517
-25.5837	-11.5116	-51.9960	-0.0415	0.5002	-0.3527
-25.5905	-11.5129	-52.0270	-0.0398	0.5113	-0.3483
-25.5956	-11.5360	-52.0429	-0.0373	0.5138	-0.3380
-25.6010	-11.5564	-52.0609	-0.0350	0.5171	-0.3283
-25.6135	-11.5698	-52.1141	-0.0309	0.5332	-0.3148
-25.6513	-11.5549	-52.2929	-0.0185	0.5979	-0.2790
-25.6680	-11.5856	-52.3597	-0.0112	0.6105	-0.2496
-25.6740	-11.5706	-52.3919	-0.0089	0.6252	-0.2438
-25.6797	-11.5614	-52.4210	-0.0065	0.6372	-0.2367
-25.6858	-11.5715	-52.4458	-0.0037	0.6410	-0.2249
-25.7012	-11.5725	-52.5168	0.0036	0.6602	-0.1978
-25.7172	-11.5831	-52.5866	0.0113	0.6726	-0.1665
-25.7227	-11.5991	-52.6069	0.0138	0.6701	-0.1544
-25.7280	-11.6012	-52.6305	0.0163	0.6738	-0.1438
-25.7329	-11.5920	-52.6561	0.0190	0.6826	-0.1342
-25.7386	-11.5888	-52.6834	0.0220	0.6887	-0.1224
-25.7432	-11.5930	-52.7030	0.0242	0.6898	-0.1126
-25.7489	-11.5918	-52.7297	0.0272	0.6940	-0.1003
-25.7536	-11.5993	-52.7489	0.0293	0.6928	-0.0902
-25.7593	-11.5992	-52.7752	0.0323	0.6957	-0.0776
-25.7644	-11.6004	-52.7983	0.0348	0.6972	-0.0663
-25.7694	-11.6119	-52.8175	0.0368	0.6931	-0.0561
-25.7743	-11.6093	-52.8410	0.0394	0.6958	-0.0450
-25.7797	-11.6054	-52.8673	0.0424	0.6987	-0.0324
-25.7844	-11.6099	-52.8872	0.0444	0.6970	-0.0225
-25.7900	-11.6181	-52.9103	0.0466	0.6933	-0.0111
-25.7959	-11.6209	-52.9367	0.0493	0.6917	0.0017
-25.8012	-11.6233	-52.9602	0.0516	0.6900	0.0129
-25.8061	-11.6294	-52.9807	0.0534	0.6863	0.0225
-25.8112	-11.6300	-53.0043	0.0557	0.6847	0.0336
-25.8160	-11.6191	-53.0302	0.0587	0.6880	0.0464
-25.8202	-11.6079	-53.0528	0.0615	0.6912	0.0580
-25.8255	-11.6103	-53.0764	0.0636	0.6876	0.0689
-25.8306	-11.6104	-53.0998	0.0658	0.6847	0.0799
-25.8354	-11.6144	-53.1208	0.0675	0.6801	0.0891
-25.8414	-11.6160	-53.1480	0.0697	0.6753	0.1011
-25.8471	-11.6272	-53.1705	0.0710	0.6667	0.1095
-25.8536	-11.6393	-53.1969	0.0723	0.6570	0.1189
-25.8595	-11.6440	-53.2224	0.0740	0.6504	0.1286
-25.8667	-11.6590	-53.2504	0.0750	0.6390	0.1372
-25.7645	-10.7244	-53.0846	0.2215	1.6853	0.4705
-25.7663	-10.7226	-53.0936	0.2264	1.6737	0.4969
-25.7687	-10.7244	-53.1038	0.2297	1.6502	0.5194
-25.7710	-10.7260	-53.1143	0.2328	1.6266	0.5416
-25.7731	-10.7255	-53.1240	0.2366	1.6085	0.5650
-25.7751	-10.7249	-53.1339	0.2403	1.5902	0.5880
-25.7773	-10.7264	-53.1433	0.2425	1.5677	0.6051
-25.7798	-10.7282	-53.1543	0.2447	1.5412	0.6241
-25.7821	-10.7279	-53.1647	0.2477	1.5199	0.6448
-25.7842	-10.7288	-53.1744	0.2496	1.4974	0.6607
-25.7870	-10.7294	-53.1869	0.2521	1.4696	0.6813
-25.7893	-10.7294	-53.1979	0.2543	1.4457	0.6994
-25.7920	-10.7309	-53.2099	0.2557	1.4172	0.7149
-25.9884	-11.6561	-53.8124	0.0974	0.4861	0.2900
-25.9977	-11.6667	-53.8524	0.0971	0.4726	0.2927
-26.0090	-11.6846	-53.8983	0.0961	0.4570	0.2936
-26.0186	-11.6931	-53.9397	0.0958	0.4442	0.2960
-26.0245	-11.6837	-53.9698	0.0964	0.4367	0.3015
-26.0265	-11.6568	-53.9879	0.0982	0.4340	0.3105
-26.0328	-11.6487	-54.0196	0.0986	0.4256	0.3153
-26.0413	-11.6493	-54.0583	0.0984	0.4145	0.3179
-26.0483	-11.6436	-54.0933	0.0986	0.4051	0.3216
-26.0776	-11.6933	-54.2117	0.0946	0.3717	0.3145
-26.0844	-11.6829	-54.2467	0.0948	0.3634	0.3181
-26.1090	-11.7000	-54.3542	0.0926	0.3376	0.3161
-26.1140	-11.6428	-54.3957	0.0947	0.3283	0.3288
-26.1543	-11.7086	-54.5606	0.0889	0.2941	0.3136
-26.1861	-11.7307	-54.6997	0.0856	0.2688	0.3067
-26.1963	-11.7211	-54.7497	0.0851	0.2599	0.3068
-26.2093	-11.7191	-54.8103	0.0840	0.2498	0.3052
-26.2118	-11.6849	-54.8332	0.0846	0.2448	0.3096
-26.3266	-11.7717	-55.3342	0.0729	0.1828	0.2762
-26.3430	-11.7702	-55.4103	0.0716	0.1749	0.2728
-26.7443	-11.8461	-57.2357	0.0470	0.0743	0.1922
-26.9583	-11.8390	-58.2235	0.0392	0.0512	0.1636
-26.9916	-11.7789	-58.3967	0.0381	0.0468	0.1603
-27.0723	-11.6961	-58.7971	0.0358	0.0392	0.1520
-27.0836	-11.6101	-58.8772	0.0354	0.0363	0.1512
-25.5789	-11.5281	-51.9799	-0.0403	0.4923	-0.3492
-25.5870	-11.5132	-52.0225	-0.0391	0.5094	-0.3491
-25.5927	-11.5281	-52.0440	-0.0369	0.5151	-0.3409
-25.5980	-11.5493	-52.0613	-0.0345	0.5181	-0.3310
-25.6104	-11.5592	-52.1163	-0.0305	0.5356	-0.3183
-25.6171	-11.5552	-52.1485	-0.0287	0.5477	-0.3135
-25.6233	-11.5565	-52.1769	-0.0266	0.5573	-0.3073
-25.6388	-11.4903	-52.2709	-0.0233	0.6076	-0.3082
-25.6529	-11.5628	-52.3125	-0.0157	0.6020	-0.2712
-25.6641	-11.5704	-52.3623	-0.0110	0.6159	-0.2539
-25.6697	-11.5702	-52.3883	-0.0086	0.6241	-0.2456
-25.6752	-11.5686	-52.4146	-0.0062	0.6326	-0.2372
-25.6814	-11.5675	-52.4438	-0.0034	0.6417	-0.2273
-25.6965	-11.5476	-52.5209	0.0038	0.6711	-0.2033
-25.7027	-11.5770	-52.5397	0.0066	0.6640	-0.1879
-25.7128	-11.5998	-52.5791	0.0113	0.6638	-0.1664
-25.7181	-11.6072	-52.6016	0.0137	0.6655	-0.1554
-25.7294	-11.6137	-52.6518	0.0191	0.6722	-0.1327
-25.7336	-11.6046	-52.6743	0.0215	0.6800	-0.1243
-25.7389	-11.5941	-52.7028	0.0245	0.6892	-0.1130
-25.7439	-11.5945	-52.7261	0.0271	0.6923	-0.1021
-25.7481	-11.5902	-52.7469	0.0295	0.6970	-0.0928
-25.7532	-11.5928	-52.7698	0.0320	0.6983	-0.0815
-25.7589	-11.5943	-52.7958	0.0349	0.7000	-0.0686
-25.7640	-11.5971	-52.8187	0.0373	0.7004	-0.0572
-25.7693	-11.6025	-52.8414	0.0397	0.6991	-0.0457
-25.7736	-11.6024	-52.8615	0.0419	0.7001	-0.0359
