-26.4067	-11.6743	-53.2384	0.0814	0.3279	0.2323
-26.4335	-11.6505	-53.3184	0.0837	0.3153	0.2392
-26.4417	-11.6186	-53.3436	0.0856	0.3121	0.2449
-26.4980	-11.6295	-53.5102	0.0860	0.2846	0.2469
-26.5139	-11.6198	-53.5575	0.0865	0.2773	0.2487
-26.5325	-11.6184	-53.6136	0.0866	0.2688	0.2492
-26.5550	-11.6259	-53.6802	0.0862	0.2590	0.2483
-26.6050	-11.6479	-53.8279	0.0848	0.2389	0.2447
-26.3182	-10.7557	-53.0024	0.1563	0.4072	0.4520
-26.3285	-10.7482	-53.0331	0.1564	0.3943	0.4527
-26.3430	-10.7551	-53.0767	0.1543	0.3780	0.4470
-26.8187	-11.6678	-54.4620	0.0789	0.1710	0.2291
-26.9988	-11.7588	-54.9947	0.0711	0.1344	0.2071
-27.0254	-11.7336	-55.0745	0.0707	0.1288	0.2061
-27.1716	-11.7514	-55.5076	0.0658	0.1067	0.1921
-27.2174	-11.7429	-55.6439	0.0645	0.1005	0.1884
-27.2443	-11.7015	-55.7247	0.0641	0.0959	0.1876
-27.7408	-11.8036	-57.1964	0.0503	0.0575	0.1477
-27.8034	-11.7669	-57.3832	0.0492	0.0534	0.1445
-25.5627	-11.4191	-50.7516	-0.0841	0.4011	-0.2619
-25.5726	-11.4340	-50.7810	-0.0821	0.4066	-0.2562
-25.5893	-11.4136	-50.8314	-0.0818	0.4204	-0.2555
-25.6017	-11.4133	-50.8684	-0.0804	0.4293	-0.2516
-25.6080	-11.4458	-50.8864	-0.0774	0.4297	-0.2426
-25.6172	-11.4624	-50.9134	-0.0751	0.4339	-0.2358
-25.6294	-11.4601	-50.9503	-0.0735	0.4425	-0.2315
-25.6572	-11.4408	-51.0338	-0.0705	0.4644	-0.2231
-25.6616	-11.4773	-51.0458	-0.0675	0.4612	-0.2138
-25.6819	-11.4926	-51.1063	-0.0629	0.4715	-0.2005
-25.7497	-11.4674	-51.3099	-0.0499	0.5174	-0.1628
-25.7586	-11.4804	-51.3361	-0.0471	0.5190	-0.1544
-25.7695	-11.4710	-51.3689	-0.0448	0.5270	-0.1477
-25.7815	-11.4435	-51.4056	-0.0429	0.5405	-0.1424
-25.7912	-11.4424	-51.4348	-0.0402	0.5456	-0.1346
-25.8483	-11.4253	-51.6060	-0.0235	0.5739	-0.0852
-25.8657	-11.4520	-51.6577	-0.0172	0.5703	-0.0664
-25.8836	-11.4778	-51.7108	-0.0110	0.5657	-0.0477
-25.9118	-11.4162	-51.7965	-0.0021	0.5899	-0.0217
-25.9867	-11.5029	-52.0188	0.0216	0.5566	0.0500
-25.9969	-11.5186	-52.0490	0.0243	0.5498	0.0582
-26.0065	-11.5189	-52.0779	0.0271	0.5475	0.0667
-26.0359	-11.5236	-52.1659	0.0353	0.5375	0.0916
-26.0552	-11.5165	-52.2237	0.0409	0.5325	0.1083
-26.0648	-11.5137	-52.2527	0.0436	0.5294	0.1164
-26.1152	-11.5213	-52.4037	0.0554	0.5039	0.1526
-26.1260	-11.5238	-52.4359	0.0577	0.4977	0.1595
-26.1392	-11.5325	-52.4751	0.0599	0.4887	0.1664
-26.1588	-11.5261	-52.5339	0.0641	0.4790	0.1793
-26.1808	-11.5163	-52.6006	0.0687	0.4677	0.1934
-26.1994	-11.5002	-52.6568	0.0728	0.4588	0.2060
-26.2110	-11.4912	-52.6916	0.0752	0.4528	0.2132
-26.2249	-11.5140	-52.7328	0.0757	0.4406	0.2150
-26.2419	-11.5415	-52.7828	0.0761	0.4264	0.2166
-26.3013	-11.6509	-52.9585	0.0757	0.3801	0.2168
-26.3472	-11.6087	-53.0970	0.0816	0.3576	0.2348
-26.3603	-11.6014	-53.1363	0.0827	0.3507	0.2385
-26.3674	-11.5614	-53.1593	0.0854	0.3487	0.2466
-26.4367	-11.6531	-53.3645	0.0830	0.3083	0.2405
-26.4499	-11.6388	-53.4044	0.0840	0.3021	0.2437
-26.4636	-11.6249	-53.4456	0.0850	0.2957	0.2467
-26.4875	-11.6450	-53.5166	0.0843	0.2840	0.2450
-26.4990	-11.6216	-53.5517	0.0855	0.2789	0.2487
-26.5059	-11.5840	-53.5741	0.0872	0.2757	0.2541
-26.5618	-11.6331	-53.7402	0.0848	0.2513	0.2475
-26.5735	-11.6062	-53.7761	0.0858	0.2461	0.2506
-26.3088	-10.7627	-53.0053	0.1538	0.4080	0.4499
-26.3170	-10.7502	-53.0302	0.1547	0.3971	0.4529
-26.3310	-10.7514	-53.0721	0.1534	0.3809	0.4493
-26.8518	-11.7178	-54.6075	0.0754	0.1608	0.2216
-26.8712	-11.6884	-54.6664	0.0754	0.1553	0.2219
-26.9702	-11.7416	-54.9616	0.0711	0.1363	0.2095
-26.9971	-11.7186	-55.0436	0.0707	0.1305	0.2083
-27.0943	-11.7491	-55.3341	0.0670	0.1153	0.1978
-27.1338	-11.7367	-55.4527	0.0660	0.1091	0.1948
-27.1743	-11.7221	-55.5743	0.0649	0.1031	0.1917
-27.2160	-11.7055	-55.6999	0.0638	0.0973	0.1886
-27.4853	-11.7299	-56.5073	0.0558	0.0714	0.1655
-27.6907	-11.7964	-57.1210	0.0505	0.0590	0.1498
-25.5574	-11.4141	-50.7452	-0.0841	0.3996	-0.2637
-25.5681	-11.4249	-50.7771	-0.0823	0.4061	-0.2587
-25.5944	-11.4182	-50.8566	-0.0800	0.4255	-0.2521
-25.6018	-11.4440	-50.8784	-0.0774	0.4276	-0.2442
-25.6125	-11.4522	-50.9103	-0.0755	0.4340	-0.2386
-25.6220	-11.4657	-50.9389	-0.0733	0.4387	-0.2322
-25.6313	-11.4806	-50.9667	-0.0710	0.4429	-0.2254
-25.6609	-11.4470	-51.0566	-0.0685	0.4681	-0.2185
-25.6655	-11.4824	-51.0696	-0.0654	0.4651	-0.2092
-25.6821	-11.5244	-51.1186	-0.0600	0.4679	-0.1929
-25.7177	-11.4175	-51.2291	-0.0590	0.5121	-0.1910
-25.7450	-11.4435	-51.3110	-0.0510	0.5228	-0.1672
-25.7641	-11.4500	-51.3684	-0.0458	0.5318	-0.1518
-25.7730	-11.4612	-51.3948	-0.0430	0.5335	-0.1431
-25.7829	-11.4573	-51.4250	-0.0404	0.5395	-0.1357
-25.7925	-11.4569	-51.4542	-0.0378	0.5442	-0.1277
-25.8000	-11.4880	-51.4761	-0.0344	0.5387	-0.1176
-25.8237	-11.4031	-51.5497	-0.0304	0.5739	-0.1064
-25.8325	-11.4072	-51.5762	-0.0275	0.5760	-0.0975
-25.8598	-11.3930	-51.6589	-0.0187	0.5896	-0.0714
-25.8770	-11.4050	-51.7110	-0.0125	0.5896	-0.0527
-25.8853	-11.4372	-51.7351	-0.0093	0.5801	-0.0427
-25.9404	-11.5254	-51.8998	0.0086	0.5544	0.0119
-25.9589	-11.5079	-51.9559	0.0145	0.5583	0.0296
-25.9869	-11.5035	-52.0407	0.0232	0.5551	0.0559
-25.9970	-11.5179	-52.0708	0.0258	0.5485	0.0640
-26.0066	-11.5208	-52.1002	0.0285	0.5451	0.0724
-26.0175	-11.5420	-52.1325	0.0309	0.5361	0.0799
-26.0373	-11.5450	-52.1923	0.0362	0.5289	0.0961
-26.0454	-11.5213	-52.2175	0.0394	0.5323	0.1054
-26.0550	-11.5177	-52.2465	0.0421	0.5295	0.1136
-26.0921	-11.4883	-52.3596	0.0529	0.5197	0.1467
-26.1364	-11.5246	-52.4925	0.0606	0.4877	0.1708
-26.1480	-11.5309	-52.5275	0.0625	0.4799	0.1768
-26.1710	-11.5385	-52.5974	0.0663	0.4650	0.1885
-26.1852	-11.5582	-52.6398	0.0674	0.4533	0.1923
-26.2314	-11.5507	-52.7795	0.0745	0.4265	0.2142
-26.2832	-11.6248	-52.9348	0.0756	0.3876	0.2188
-26.2976	-11.6286	-52.9781	0.0767	0.3791	0.2221
-26.3102	-11.6318	-53.0161	0.0775	0.3717	0.2249
-26.3258	-11.6303	-53.0634	0.0787	0.3631	0.2288
-26.3365	-11.6130	-53.0960	0.0804	0.3582	0.2340
-26.3500	-11.6083	-53.1371	0.0815	0.3509	0.2374
-26.3634	-11.6019	-53.1777	0.0825	0.3437	0.2408
-26.4012	-11.6373	-53.2916	0.0822	0.3218	0.2404
-26.4176	-11.6376	-53.3413	0.0827	0.3133	0.2422
-26.4331	-11.6329	-53.3883	0.0834	0.3056	0.2443
-26.4483	-11.6256	-53.4342	0.0840	0.2982	0.2465
-26.4672	-11.6297	-53.4913	0.0841	0.2889	0.2469
-26.4842	-11.6260	-53.5430	0.0844	0.2809	0.2482
-26.4977	-11.6085	-53.5839	0.0853	0.2747	0.2509
-26.5067	-11.5775	-53.6127	0.0867	0.2704	0.2553
-26.5486	-11.5838	-53.7392	0.0861	0.2517	0.2540
-26.3029	-10.7503	-53.0174	0.1536	0.4038	0.4543
-26.3162	-10.7508	-53.0577	0.1525	0.3878	0.4513
-26.9338	-11.7320	-54.9011	0.0714	0.1403	0.2123
-26.9670	-11.7227	-55.0025	0.0705	0.1335	0.2097
-27.0093	-11.7267	-55.1305	0.0690	0.1260	0.2055
-27.1589	-11.7487	-55.5822	0.0639	0.1039	0.1908
-27.3164	-11.7353	-56.0590	0.0594	0.0851	0.1776
-27.6991	-11.7570	-57.2171	0.0496	0.0565	0.1487
-27.9069	-11.7612	-57.8458	0.0454	0.0464	0.1362
-25.5530	-11.4107	-50.7409	-0.0839	0.3985	-0.2650
-25.6111	-11.4297	-50.9176	-0.0762	0.4381	-0.2427
-25.6171	-11.4633	-50.9351	-0.0732	0.4378	-0.2335
-25.6270	-11.4747	-50.9648	-0.0711	0.4429	-0.2272
-25.6398	-11.4660	-51.0041	-0.0697	0.4529	-0.2232
-25.6599	-11.4930	-51.0645	-0.0647	0.4617	-0.2084
-25.6690	-11.5074	-51.0919	-0.0623	0.4650	-0.2011
-25.7379	-11.4534	-51.3035	-0.0509	0.5185	-0.1678
-25.7470	-11.4619	-51.3309	-0.0483	0.5216	-0.1597
-25.7543	-11.4764	-51.3528	-0.0457	0.5219	-0.1520
-25.7651	-11.4793	-51.3859	-0.0428	0.5268	-0.1433
-25.7770	-11.4496	-51.4230	-0.0410	0.5408	-0.1379
-25.7976	-11.4239	-51.4862	-0.0362	0.5580	-0.1238
-25.8257	-11.4078	-51.5723	-0.0280	0.5749	-0.0994
-25.8367	-11.3865	-51.6064	-0.0251	0.5860	-0.0906
-25.8525	-11.3988	-51.6546	-0.0193	0.5869	-0.0732
-25.8620	-11.4135	-51.6832	-0.0158	0.5844	-0.0623
-25.8698	-11.4110	-51.7068	-0.0132	0.5869	-0.0545
-25.8781	-11.4324	-51.7318	-0.0101	0.5813	-0.0448
-25.8958	-11.4319	-51.7856	-0.0041	0.5838	-0.0266
-25.9409	-11.4884	-51.9222	0.0106	0.5655	0.0187
-25.9503	-11.4961	-51.9504	0.0135	0.5622	0.0275
-25.9593	-11.4883	-51.9781	0.0165	0.5635	0.0365
-25.9684	-11.4849	-52.0060	0.0194	0.5631	0.0455
-25.9781	-11.4961	-52.0351	0.0221	0.5578	0.0539
-25.9884	-11.5195	-52.0662	0.0247	0.5485	0.0618
-25.9982	-11.5236	-52.0957	0.0274	0.5449	0.0702
-26.0176	-11.5310	-52.1553	0.0327	0.5370	0.0866
-26.0270	-11.5256	-52.1839	0.0355	0.5354	0.0951
-26.0363	-11.5207	-52.2125	0.0382	0.5334	0.1035
-26.0555	-11.5160	-52.2713	0.0435	0.5268	0.1197
-26.0636	-11.4960	-52.2965	0.0465	0.5284	0.1289
-26.0815	-11.4768	-52.3517	0.0520	0.5244	0.1459
-26.1234	-11.4999	-52.4789	0.0602	0.4959	0.1717
-26.2857	-11.6266	-52.9716	0.0757	0.3811	0.2218
-26.2987	-11.6238	-53.0117	0.0770	0.3739	0.2257
-26.3113	-11.6176	-53.0505	0.0783	0.3671	0.2299
-26.3359	-11.6072	-53.1256	0.0805	0.3538	0.2369
-26.3746	-11.5725	-53.2444	0.0843	0.3335	0.2489
-26.4123	-11.6030	-53.3593	0.0838	0.3120	0.2481
-26.4741	-11.6366	-53.5471	0.0832	0.2807	0.2469
-26.4850	-11.6112	-53.5810	0.0844	0.2757	0.2507
-26.4958	-11.5851	-53.6146	0.0856	0.2707	0.2545
-26.5149	-11.5843	-53.6730	0.0855	0.2619	0.2545
-26.5381	-11.5935	-53.7435	0.0849	0.2518	0.2529
-26.5665	-11.6150	-53.8295	0.0837	0.2402	0.2495
-26.2929	-10.7464	-53.0164	0.1528	0.4054	0.4564
-26.3054	-10.7497	-53.0545	0.1514	0.3904	0.4525
-26.3207	-10.7541	-53.1011	0.1496	0.3730	0.4473
-26.9912	-11.7294	-55.1244	0.0685	0.1267	0.2059
-27.0255	-11.7157	-55.2293	0.0676	0.1204	0.2034
-27.1336	-11.7432	-55.5586	0.0638	0.1050	0.1921
-27.1626	-11.7087	-55.6478	0.0633	0.1001	0.1907
-27.1906	-11.6707	-55.7354	0.0628	0.0954	0.1895
-27.6687	-11.7453	-57.1930	0.0495	0.0568	0.1497
-25.5511	-11.4053	-50.7448	-0.0837	0.3995	-0.2662
-25.5928	-11.4468	-50.8717	-0.0766	0.4250	-0.2450
-25.6025	-11.4595	-50.9014	-0.0745	0.4303	-0.2389
-25.6138	-11.4621	-50.9364	-0.0729	0.4379	-0.2340
-25.6582	-11.4676	-51.0728	-0.0656	0.4674	-0.2124
-25.6661	-11.4903	-51.0964	-0.0629	0.4686	-0.2040
-25.6753	-11.5034	-51.1244	-0.0605	0.4721	-0.1966
-25.7075	-11.4219	-51.2255	-0.0587	0.5095	-0.1920
-25.7135	-11.4580	-51.2433	-0.0552	0.5053	-0.1813
-25.7838	-11.4325	-51.4602	-0.0385	0.5513	-0.1308
-25.8392	-11.4156	-51.6311	-0.0218	0.5789	-0.0802
-25.8467	-11.4581	-51.6531	-0.0184	0.5672	-0.0695
-25.8828	-11.4400	-51.7650	-0.0068	0.5804	-0.0341
-25.8918	-11.4135	-51.7933	-0.0039	0.5905	-0.0253
-25.9546	-11.4833	-51.9854	0.0166	0.5650	0.0384
-25.9638	-11.4848	-52.0136	0.0195	0.5630	0.0472
-25.9733	-11.4929	-52.0425	0.0222	0.5586	0.0558
-25.9833	-11.5123	-52.0729	0.0247	0.5504	0.0637
-25.9933	-11.5292	-52.1039	0.0272	0.5429	0.0715
-26.0027	-11.5277	-52.1328	0.0299	0.5406	0.0800
-26.0405	-11.5205	-52.2492	0.0406	0.5292	0.1129
-26.0494	-11.5116	-52.2769	0.0433	0.5277	0.1213
-26.0600	-11.5206	-52.3091	0.0455	0.5207	0.1284
-26.0685	-11.5078	-52.3362	0.0483	0.5198	0.1370
-26.0783	-11.5079	-52.3666	0.0507	0.5148	0.1444
-26.0885	-11.5221	-52.3974	0.0523	0.5063	0.1496
-26.0988	-11.5112	-52.4295	0.0552	0.5032	0.1586
-26.1065	-11.4888	-52.4536	0.0582	0.5038	0.1677
-26.1330	-11.4548	-52.5359	0.0658	0.4947	0.1914
-26.1421	-11.4564	-52.5644	0.0675	0.4883	0.1968
-26.1545	-11.4696	-52.6023	0.0689	0.4777	0.2014
-26.1868	-11.4663	-52.7019	0.0745	0.4565	0.2189
-26.1963	-11.4558	-52.7315	0.0766	0.4515	0.2256
-26.2606	-11.6114	-52.9265	0.0743	0.3919	0.2201
-26.2768	-11.6266	-52.9760	0.0749	0.3810	0.2222
-26.2913	-11.6314	-53.0207	0.0759	0.3723	0.2253
-26.3067	-11.6471	-53.0676	0.0762	0.3624	0.2264
-26.3190	-11.6383	-53.1057	0.0775	0.3561	0.2305
-26.3328	-11.6351	-53.1483	0.0785	0.3486	0.2338
-26.3455	-11.6174	-53.1880	0.0801	0.3424	0.2390
-26.3559	-11.6068	-53.2207	0.0812	0.3370	0.2424
-26.3776	-11.6324	-53.2872	0.0807	0.3241	0.2413
-26.3962	-11.6422	-53.3441	0.0808	0.3140	0.2419
-26.4098	-11.6314	-53.3864	0.0817	0.3073	0.2448
-26.4229	-11.6174	-53.4269	0.0827	0.3009	0.2479
-26.4664	-11.6459	-53.5603	0.0819	0.2792	0.2461
-26.4749	-11.6124	-53.5872	0.0835	0.2754	0.2509
-26.4858	-11.5878	-53.6223	0.0846	0.2702	0.2545
-26.5150	-11.5576	-53.7127	0.0857	0.2565	0.2583
-26.2836	-10.7446	-53.0180	0.1516	0.4060	0.4579
-26.2964	-10.7446	-53.0575	0.1506	0.3901	0.4551
-26.3100	-10.7499	-53.0999	0.1487	0.3743	0.4499
-26.8350	-11.7278	-54.6958	0.0723	0.1554	0.2194
-26.8569	-11.7032	-54.7637	0.0722	0.1497	0.2191
-27.0080	-11.7112	-55.2302	0.0671	0.1205	0.2040
-27.0930	-11.7018	-55.4923	0.0644	0.1071	0.1962
-27.1720	-11.6663	-55.7365	0.0624	0.0954	0.1900
-27.1972	-11.6217	-55.8151	0.0620	0.0909	0.1892
-27.4206	-11.6648	-56.5039	0.0551	0.0704	0.1681
-27.6585	-11.7698	-57.2349	0.0487	0.0567	0.1487
-25.5599	-11.4088	-50.7843	-0.0820	0.4083	-0.2626
-25.5732	-11.4675	-50.8247	-0.0768	0.4119	-0.2465
-25.6037	-11.4309	-50.9199	-0.0756	0.4379	-0.2432
-25.6083	-11.4715	-50.9338	-0.0723	0.4359	-0.2330
-25.6167	-11.4910	-50.9596	-0.0699	0.4390	-0.2257
-25.6303	-11.4771	-51.0019	-0.0688	0.4502	-0.2224
-25.6526	-11.4863	-51.0711	-0.0646	0.4638	-0.2097
-25.6928	-11.4183	-51.1975	-0.0610	0.5041	-0.1995
-25.7017	-11.4278	-51.2250	-0.0585	0.5080	-0.1917
-25.7106	-11.4368	-51.2525	-0.0560	0.5118	-0.1839
-25.7473	-11.4614	-51.3663	-0.0457	0.5278	-0.1524
-25.7767	-11.4485	-51.4582	-0.0384	0.5465	-0.1299
-25.8159	-11.3993	-51.5808	-0.0283	0.5788	-0.0992
-25.8416	-11.4140	-51.6604	-0.0194	0.5825	-0.0716
-25.8762	-11.4106	-51.7686	-0.0075	0.5910	-0.0348
-25.8934	-11.4151	-51.8220	-0.0015	0.5911	-0.0161
-25.9652	-11.4877	-52.0440	0.0215	0.5608	0.0560
-25.9749	-11.5022	-52.0741	0.0241	0.5541	0.0643
-25.9855	-11.5349	-52.1070	0.0264	0.5417	0.0715
-25.9959	-11.5512	-52.1388	0.0288	0.5342	0.0792
-26.0052	-11.5685	-52.1675	0.0308	0.5267	0.0855
-26.0320	-11.5203	-52.2517	0.0397	0.5298	0.1132
-26.0404	-11.5066	-52.2783	0.0425	0.5297	0.1220
-26.0591	-11.5019	-52.3370	0.0475	0.5220	0.1378
-26.0789	-11.5036	-52.3984	0.0522	0.5114	0.1525
-26.1010	-11.5345	-52.4667	0.0554	0.4925	0.1629
-26.1820	-11.5727	-52.7185	0.0675	0.4380	0.2016
-26.1937	-11.5727	-52.7549	0.0691	0.4308	0.2068
-26.2378	-11.6180	-52.8919	0.0718	0.3987	0.2156
-26.2496	-11.6129	-52.9287	0.0732	0.3922	0.2203
-26.2655	-11.6273	-52.9778	0.0739	0.3815	0.2225
-26.2796	-11.6314	-53.0218	0.0748	0.3729	0.2257
-26.2961	-11.6443	-53.0728	0.0754	0.3625	0.2275
-26.3081	-11.6347	-53.1103	0.0767	0.3564	0.2318
-26.3178	-11.6222	-53.1407	0.0780	0.3516	0.2358
-26.3307	-11.6065	-53.1811	0.0795	0.3451	0.2408
-26.3391	-11.5889	-53.2085	0.0809	0.3410	0.2452
-26.3778	-11.6212	-53.3281	0.0807	0.3182	0.2450
-26.3879	-11.5986	-53.3602	0.0821	0.3134	0.2496
-26.4068	-11.6079	-53.4189	0.0821	0.3032	0.2497
-26.4544	-11.6532	-53.5661	0.0807	0.2790	0.2457
-26.4648	-11.6262	-53.5989	0.0819	0.2742	0.2496
-26.4783	-11.6099	-53.6422	0.0826	0.2678	0.2520
-26.4984	-11.6121	-53.7046	0.0825	0.2587	0.2517
-26.5242	-11.6299	-53.7847	0.0815	0.2476	0.2490
-26.5524	-11.6515	-53.8721	0.0804	0.2362	0.2457
-26.2722	-10.7489	-53.0170	0.1496	0.4081	0.4579
-26.2854	-10.7456	-53.0580	0.1490	0.3913	0.4562
-26.2999	-10.7495	-53.1039	0.1472	0.3740	0.4511
-26.7474	-11.6444	-54.4801	0.0758	0.1709	0.2326
-26.8355	-11.6981	-54.7532	0.0717	0.1507	0.2203
-26.8613	-11.6804	-54.8340	0.0712	0.1443	0.2189
-26.9297	-11.6799	-55.0481	0.0689	0.1303	0.2120
-27.0706	-11.7021	-55.4865	0.0639	0.1076	0.1969
-27.1478	-11.6655	-55.7274	0.0619	0.0960	0.1908
-27.1730	-11.6217	-55.8069	0.0615	0.0915	0.1899
-27.6258	-11.7687	-57.2157	0.0484	0.0571	0.1495
-27.6883	-11.7345	-57.4111	0.0472	0.0529	0.1460
-25.5412	-11.4105	-50.7389	-0.0829	0.3973	-0.2668
-25.5526	-11.4157	-50.7746	-0.0816	0.4052	-0.2627
-25.5771	-11.4147	-50.8514	-0.0791	0.4234	-0.2554
-25.5984	-11.4248	-50.9185	-0.0759	0.4381	-0.2454
-25.6035	-11.4619	-50.9340	-0.0728	0.4370	-0.2356
-25.6460	-11.4009	-51.0682	-0.0703	0.4774	-0.2285
-25.6939	-11.4334	-51.2183	-0.0588	0.5053	-0.1929
-25.7032	-11.4378	-51.2476	-0.0565	0.5105	-0.1856
-25.7130	-11.4380	-51.2783	-0.0542	0.5168	-0.1786
-25.7210	-11.4546	-51.3031	-0.0514	0.5178	-0.1698
-25.7386	-11.4713	-51.3582	-0.0462	0.5239	-0.1537
-25.8596	-11.3729	-51.7406	-0.0120	0.6033	-0.0474
-25.8674	-11.4139	-51.7644	-0.0087	0.5901	-0.0370
-25.8843	-11.4246	-51.8179	-0.0027	0.5883	-0.0181
-25.9194	-11.4732	-51.9273	0.0089	0.5717	0.0187
-25.9277	-11.4510	-51.9539	0.0119	0.5782	0.0281
-25.9445	-11.4271	-52.0071	0.0180	0.5837	0.0470
-25.9650	-11.5047	-52.0705	0.0227	0.5544	0.0625
-25.9749	-11.5227	-52.1014	0.0252	0.5465	0.0703
-25.9854	-11.5470	-52.1341	0.0275	0.5366	0.0778
-26.0043	-11.5455	-52.1934	0.0328	0.5309	0.0943
-26.0113	-11.5082	-52.2160	0.0360	0.5385	0.1045
-26.0197	-11.4941	-52.2427	0.0389	0.5390	0.1136
-26.0299	-11.5068	-52.2752	0.0412	0.5310	0.1208
-26.0409	-11.5236	-52.3093	0.0432	0.5217	0.1275
-26.1144	-11.4845	-52.5418	0.0620	0.4896	0.1870
-26.1409	-11.4509	-52.6256	0.0691	0.4782	0.2095
-26.2221	-11.6031	-52.8791	0.0711	0.4037	0.2170
-26.2353	-11.6068	-52.9207	0.0722	0.3953	0.2208
-26.2832	-11.6587	-53.0704	0.0735	0.3627	0.2253
-26.2929	-11.6307	-53.1021	0.0757	0.3590	0.2322
-26.2993	-11.5950	-53.1227	0.0780	0.3575	0.2397
-26.3111	-11.5929	-53.1600	0.0788	0.3507	0.2423
-26.3198	-11.5600	-53.1879	0.0811	0.3472	0.2495
-26.3244	-11.5188	-53.2031	0.0836	0.3463	0.2575
-26.3716	-11.5946	-53.3502	0.0812	0.3161	0.2504
-26.3911	-11.6071	-53.4112	0.0811	0.3053	0.2501
-26.4398	-11.6608	-53.5645	0.0793	0.2798	0.2451
-26.4501	-11.6340	-53.5973	0.0806	0.2751	0.2491
-26.4601	-11.6058	-53.6293	0.0818	0.2704	0.2531
-26.2608	-10.7494	-53.0166	0.1480	0.4097	0.4591
-26.2725	-10.7470	-53.0534	0.1474	0.3946	0.4575
-26.2859	-10.7527	-53.0955	0.1456	0.3787	0.4522
-26.9093	-11.6889	-55.0433	0.0681	0.1312	0.2122
-26.9408	-11.6740	-55.1429	0.0673	0.1248	0.2097
-27.0312	-11.6823	-55.4272	0.0641	0.1100	0.2001
-27.1241	-11.6751	-55.7209	0.0612	0.0967	0.1912
-27.1445	-11.6246	-55.7859	0.0611	0.0926	0.1910
-27.5777	-11.7458	-57.1493	0.0485	0.0580	0.1517
-27.6947	-11.6807	-57.5189	0.0463	0.0501	0.1449
-25.5530	-11.4441	-50.7888	-0.0790	0.4056	-0.2561
-25.5684	-11.4263	-50.8380	-0.0786	0.4187	-0.2550
-25.5842	-11.4039	-50.8883	-0.0784	0.4332	-0.2543
-25.5929	-11.4190	-50.9159	-0.0762	0.4380	-0.2477
-25.5969	-11.4622	-50.9280	-0.0729	0.4353	-0.2370
-25.6280	-11.4769	-51.0266	-0.0675	0.4553	-0.2201
-25.6582	-11.5011	-51.1219	-0.0609	0.4716	-0.1996
-25.6689	-11.4873	-51.1564	-0.0597	0.4813	-0.1958
-25.6917	-11.4771	-51.2289	-0.0557	0.4981	-0.1832
-25.7128	-11.4634	-51.2960	-0.0517	0.5143	-0.1708
-25.7218	-11.4693	-51.3246	-0.0492	0.5183	-0.1630
-25.7401	-11.4757	-51.3829	-0.0443	0.5271	-0.1476
-25.7512	-11.4541	-51.4185	-0.0424	0.5387	-0.1417
-25.7602	-11.4568	-51.4468	-0.0398	0.5426	-0.1335
-25.7694	-11.4551	-51.4761	-0.0373	0.5476	-0.1256
-25.8000	-11.3861	-51.5741	-0.0306	0.5826	-0.1048
-25.8086	-11.3851	-51.6015	-0.0278	0.5865	-0.0959
-25.8247	-11.4045	-51.6529	-0.0217	0.5856	-0.0767
-25.8429	-11.4046	-51.7104	-0.0155	0.5905	-0.0570
-25.8674	-11.3817	-51.7886	-0.0071	0.6030	-0.0306
-25.8767	-11.3711	-51.8186	-0.0038	0.6079	-0.0199
-25.9547	-11.5013	-52.0652	0.0213	0.5565	0.0605
-25.9844	-11.5490	-52.1590	0.0287	0.5344	0.0841
-26.0015	-11.5223	-52.2137	0.0343	0.5358	0.1019
-26.0107	-11.5189	-52.2428	0.0369	0.5330	0.1102
-26.0184	-11.5151	-52.2680	0.0391	0.5307	0.1174
-26.0284	-11.5059	-52.2999	0.0422	0.5286	0.1270
-26.0539	-11.4843	-52.3809	0.0496	0.5210	0.1508
-26.1719	-11.5931	-52.7552	0.0658	0.4299	0.2034
-26.1804	-11.5740	-52.7829	0.0680	0.4271	0.2106
-26.1915	-11.5702	-52.8183	0.0696	0.4205	0.2159
-26.2776	-11.6329	-53.0917	0.0743	0.3616	0.2314
-26.2893	-11.6229	-53.1293	0.0756	0.3554	0.2357
-26.3250	-11.6534	-53.2422	0.0760	0.3334	0.2372
-26.3285	-11.5961	-53.2541	0.0791	0.3340	0.2470
-26.3406	-11.5923	-53.2927	0.0797	0.3272	0.2492
-26.3540	-11.5842	-53.3354	0.0806	0.3198	0.2520
-26.4392	-11.6522	-53.6060	0.0789	0.2744	0.2472
-26.4479	-11.6198	-53.6340	0.0803	0.2704	0.2518
-26.4640	-11.6114	-53.6854	0.0806	0.2628	0.2529
-26.4826	-11.6093	-53.7446	0.0806	0.2543	0.2530
-26.2492	-10.7525	-53.0141	0.1462	0.4124	0.4595
-26.2586	-10.7446	-53.0442	0.1464	0.3995	0.4604
-26.2711	-10.7488	-53.0840	0.1449	0.3841	0.4559
-26.6892	-11.6097	-54.4020	0.0759	0.1778	0.2390
-26.7027	-11.5762	-54.4465	0.0763	0.1726	0.2404
-26.8351	-11.6556	-54.8667	0.0699	0.1419	0.2205
-26.9173	-11.6805	-55.1276	0.0667	0.1262	0.2104
-26.9974	-11.6742	-55.3824	0.0641	0.1122	0.2024
-27.0994	-11.6868	-55.7080	0.0606	0.0978	0.1916
-27.1197	-11.6367	-55.7731	0.0606	0.0937	0.1914
-27.5074	-11.7156	-57.0068	0.0492	0.0603	0.1559
-27.6341	-11.6697	-57.4105	0.0466	0.0518	0.1477
-25.5636	-11.4174	-50.8367	-0.0791	0.4191	-0.2577
-25.5760	-11.4131	-50.8766	-0.0780	0.4290	-0.2543
-25.5852	-11.4258	-50.9057	-0.0760	0.4345	-0.2481
-25.5916	-11.4545	-50.9260	-0.0733	0.4356	-0.2395
-25.6007	-11.4671	-50.9551	-0.0713	0.4406	-0.2331
-25.6536	-11.4722	-51.1247	-0.0625	0.4772	-0.2053
-25.6631	-11.4884	-51.1552	-0.0598	0.4807	-0.1966
-25.6752	-11.4729	-51.1940	-0.0583	0.4917	-0.1920
-25.7101	-11.4183	-51.3068	-0.0536	0.5271	-0.1772
-25.7167	-11.4459	-51.3279	-0.0505	0.5245	-0.1671
-25.7250	-11.4579	-51.3541	-0.0478	0.5264	-0.1586
-25.7343	-11.4581	-51.3840	-0.0454	0.5318	-0.1510
-25.7444	-11.4470	-51.4164	-0.0432	0.5403	-0.1442
-25.7542	-11.4373	-51.4480	-0.0410	0.5482	-0.1370
-25.7616	-11.4590	-51.4717	-0.0379	0.5459	-0.1272
-25.7830	-11.3986	-51.5412	-0.0340	0.5742	-0.1147
-25.7921	-11.3874	-51.5706	-0.0314	0.5819	-0.1067
-25.8022	-11.3763	-51.6030	-0.0285	0.5898	-0.0973
-25.8097	-11.3703	-51.6271	-0.0261	0.5947	-0.0898
-25.8324	-11.4398	-51.6993	-0.0167	0.5781	-0.0593
-25.8504	-11.3861	-51.7579	-0.0113	0.6004	-0.0424
-25.8762	-11.3761	-51.8408	-0.0020	0.6070	-0.0125
-25.8844	-11.3775	-51.8670	0.0010	0.6068	-0.0029
-25.9540	-11.5041	-52.0896	0.0227	0.5545	0.0671
-25.9633	-11.5120	-52.1193	0.0252	0.5495	0.0754
-25.9731	-11.5282	-52.1509	0.0276	0.5418	0.0831
-26.0169	-11.4949	-52.2920	0.0410	0.5335	0.1261
-26.1853	-11.6101	-52.8324	0.0669	0.4137	0.2106
-26.1977	-11.6125	-52.8721	0.0682	0.4058	0.2149
-26.2093	-11.6088	-52.9094	0.0697	0.3991	0.2197
-26.2211	-11.6051	-52.9474	0.0711	0.3921	0.2242
-26.2345	-11.6101	-52.9909	0.0720	0.3833	0.2275
-26.2471	-11.6081	-53.0315	0.0732	0.3757	0.2313
-26.2620	-11.6254	-53.0793	0.0734	0.3653	0.2321
-26.2755	-11.6249	-53.1226	0.0744	0.3573	0.2352
-26.2861	-11.6008	-53.1569	0.0763	0.3525	0.2415
-26.2957	-11.5807	-53.1880	0.0779	0.3478	0.2467
-26.3540	-11.5842	-53.3756	0.0800	0.3135	0.2537
-26.3759	-11.6067	-53.4457	0.0794	0.3010	0.2519
-26.4259	-11.6650	-53.6059	0.0774	0.2750	0.2459
-26.4332	-11.6277	-53.6296	0.0790	0.2717	0.2512
-26.4481	-11.6160	-53.6776	0.0796	0.2646	0.2529
-26.4717	-11.6309	-53.7533	0.0789	0.2538	0.2507
-26.4913	-11.6317	-53.8172	0.0786	0.2450	0.2502
-26.5117	-11.6312	-53.8825	0.0784	0.2364	0.2496
-26.2451	-10.7438	-53.0348	0.1453	0.4047	0.4628
-26.2579	-10.7448	-53.0760	0.1442	0.3882	0.4593
-26.7562	-11.6811	-54.6684	0.0707	0.1577	0.2257
-26.7744	-11.6512	-54.7270	0.0708	0.1522	0.2259
-26.8847	-11.6706	-55.0814	0.0667	0.1289	0.2130
-26.9603	-11.6613	-55.3256	0.0643	0.1150	0.2054
-27.1123	-11.6771	-55.8137	0.0592	0.0935	0.1892
-27.1153	-11.5990	-55.8240	0.0599	0.0907	0.1916
-27.6099	-11.6980	-57.4138	0.0461	0.0524	0.1475
-25.5705	-11.4110	-50.8718	-0.0780	0.4278	-0.2558
-25.5810	-11.4235	-50.9059	-0.0760	0.4345	-0.2492
-25.5856	-11.4534	-50.9205	-0.0734	0.4342	-0.2410
-25.5929	-11.4767	-50.9442	-0.0710	0.4366	-0.2332
-25.6189	-11.4492	-51.0287	-0.0690	0.4595	-0.2268
-25.6277	-11.4709	-51.0570	-0.0662	0.4624	-0.2179
-25.6384	-11.4596	-51.0916	-0.0651	0.4720	-0.2144
-25.6941	-11.4161	-51.2727	-0.0564	0.5203	-0.1865
-25.7107	-11.4360	-51.3261	-0.0513	0.5264	-0.1700
-25.7179	-11.4577	-51.3495	-0.0483	0.5255	-0.1605
-25.7523	-11.4855	-51.4607	-0.0381	0.5369	-0.1273
-25.7862	-11.3789	-51.5715	-0.0321	0.5848	-0.1084
-25.7939	-11.3918	-51.5962	-0.0291	0.5838	-0.0987
-25.8027	-11.3826	-51.6247	-0.0265	0.5903	-0.0902
-25.8187	-11.3934	-51.6765	-0.0207	0.5920	-0.0714
-25.8332	-11.4189	-51.7239	-0.0151	0.5870	-0.0533
-25.8410	-11.4473	-51.7487	-0.0120	0.5790	-0.0433
-25.8490	-11.4682	-51.7747	-0.0091	0.5733	-0.0338
-25.8577	-11.4557	-51.8026	-0.0064	0.5785	-0.0249
-25.8660	-11.4778	-51.8296	-0.0035	0.5719	-0.0155
-25.9270	-11.5144	-52.0274	0.0158	0.5562	0.0469
-25.9441	-11.4982	-52.0829	0.0213	0.5573	0.0649
-25.9635	-11.5355	-52.1458	0.0261	0.5408	0.0805
-25.9727	-11.5374	-52.1757	0.0286	0.5372	0.0888
-25.9819	-11.5378	-52.2053	0.0311	0.5339	0.0969
-25.9897	-11.5162	-52.2310	0.0341	0.5367	0.1064
-25.9974	-11.4942	-52.2559	0.0370	0.5396	0.1159
-26.0056	-11.4815	-52.2826	0.0398	0.5392	0.1249
-26.0142	-11.4751	-52.3106	0.0424	0.5367	0.1333
-26.0379	-11.5347	-52.3874	0.0456	0.5094	0.1441
-26.1076	-11.4541	-52.6145	0.0648	0.4831	0.2066
-26.1605	-11.6072	-52.7849	0.0642	0.4239	0.2050
-26.1719	-11.6052	-52.8218	0.0658	0.4171	0.2102
-26.2234	-11.6224	-52.9895	0.0703	0.3832	0.2253
-26.2494	-11.6219	-53.0737	0.0725	0.3674	0.2324
-26.2600	-11.6083	-53.1084	0.0740	0.3619	0.2372
-26.2726	-11.6116	-53.1489	0.0746	0.3541	0.2393
-26.2868	-11.6126	-53.1950	0.0754	0.3455	0.2419
-26.2998	-11.6078	-53.2380	0.0763	0.3379	0.2449
-26.3135	-11.6035	-53.2823	0.0771	0.3301	0.2476
-26.3289	-11.6053	-53.3323	0.0776	0.3212	0.2493
-26.3387	-11.5828	-53.3643	0.0790	0.3163	0.2539
-26.3513	-11.5710	-53.4054	0.0799	0.3094	0.2569
-26.4055	-11.6497	-53.5804	0.0771	0.2796	0.2481
-26.4178	-11.6307	-53.6205	0.0780	0.2737	0.2511
-26.4259	-11.5973	-53.6478	0.0795	0.2697	0.2558
-26.4687	-11.6144	-53.7867	0.0786	0.2497	0.2530
-26.2333	-10.7450	-53.0292	0.1439	0.4085	0.4637
-26.2455	-10.7451	-53.0688	0.1429	0.3924	0.4608
-26.2590	-10.7478	-53.1133	0.1414	0.3755	0.4562
-26.7492	-11.6459	-54.6973	0.0705	0.1547	0.2277
-26.8736	-11.6989	-55.1014	0.0654	0.1290	0.2112
-26.8842	-11.6451	-55.1364	0.0659	0.1251	0.2129
-27.0316	-11.6766	-55.6144	0.0606	0.1020	0.1958
-27.0989	-11.6215	-55.8333	0.0590	0.0913	0.1909
-27.2698	-11.7003	-56.3885	0.0533	0.0753	0.1724
-27.4772	-11.6835	-57.0620	0.0482	0.0587	0.1559
-27.7200	-11.6499	-57.8501	0.0431	0.0449	0.1397
-25.5484	-11.4368	-50.8111	-0.0779	0.4105	-0.2569
-25.5716	-11.4360	-50.8870	-0.0754	0.4281	-0.2490
-25.5799	-11.4530	-50.9142	-0.0733	0.4324	-0.2422
-25.5889	-11.4660	-50.9436	-0.0714	0.4374	-0.2358
-25.5971	-11.4836	-50.9701	-0.0692	0.4410	-0.2286
-25.6090	-11.4769	-51.0089	-0.0679	0.4505	-0.2245
-25.6410	-11.4715	-51.1137	-0.0629	0.4743	-0.2085
-25.6532	-11.4543	-51.1540	-0.0617	0.4862	-0.2045
-25.7099	-11.4735	-51.3394	-0.0483	0.5194	-0.1608
-25.7191	-11.4739	-51.3694	-0.0460	0.5247	-0.1534
-25.7274	-11.4834	-51.3968	-0.0434	0.5269	-0.1450
-25.7871	-11.3856	-51.5927	-0.0300	0.5851	-0.1013
-25.7941	-11.3897	-51.6155	-0.0275	0.5865	-0.0932
-25.8097	-11.4068	-51.6669	-0.0217	0.5863	-0.0743
-25.8273	-11.4026	-51.7244	-0.0158	0.5925	-0.0549
-25.8581	-11.4584	-51.8251	-0.0046	0.5781	-0.0181
-25.9437	-11.4934	-52.1054	0.0228	0.5571	0.0714
-25.9517	-11.4794	-52.1321	0.0256	0.5589	0.0807
-25.9722	-11.5335	-52.1989	0.0299	0.5361	0.0950
-25.9799	-11.5100	-52.2242	0.0329	0.5396	0.1046
-25.9874	-11.4861	-52.2489	0.0358	0.5431	0.1143
-26.0042	-11.4693	-52.3040	0.0412	0.5397	0.1318
-26.0129	-11.4646	-52.3324	0.0437	0.5365	0.1401
-26.0435	-11.4967	-52.4329	0.0498	0.5111	0.1601
-26.0747	-11.5267	-52.5349	0.0550	0.4858	0.1772
-26.0849	-11.5280	-52.5684	0.0569	0.4791	0.1836
-26.1896	-11.6381	-52.9110	0.0662	0.3970	0.2147
-26.2389	-11.6305	-53.0734	0.0711	0.3675	0.2309
-26.2650	-11.6351	-53.1588	0.0727	0.3515	0.2360
-26.2760	-11.6217	-53.1948	0.0740	0.3457	0.2404
-26.2897	-11.6193	-53.2396	0.0748	0.3377	0.2432
-26.3045	-11.6207	-53.2882	0.0754	0.3290	0.2452
-26.3158	-11.6054	-53.3252	0.0766	0.3231	0.2491
-26.3217	-11.5685	-53.3456	0.0786	0.3207	0.2558
-26.3313	-11.5458	-53.3771	0.0800	0.3157	0.2604
-26.3944	-11.6619	-53.5830	0.0758	0.2797	0.2466
-26.4048	-11.6365	-53.6174	0.0769	0.2747	0.2505
-26.4097	-11.5920	-53.6338	0.0788	0.2725	0.2567
-26.4610	-11.6389	-53.8014	0.0768	0.2484	0.2501
-26.2226	-10.7468	-53.0261	0.1423	0.4113	0.4639
-26.2334	-10.7433	-53.0613	0.1419	0.3967	0.4627
-26.2474	-10.7475	-53.1072	0.1403	0.3791	0.4575
-26.7116	-11.6767	-54.6241	0.0699	0.1618	0.2282
-26.7819	-11.6925	-54.8542	0.0673	0.1450	0.2199
-26.8545	-11.7068	-55.0923	0.0647	0.1301	0.2114
-26.8685	-11.6596	-55.1382	0.0650	0.1258	0.2125
-27.0103	-11.6857	-55.6029	0.0600	0.1030	0.1961
-27.0492	-11.6703	-55.7317	0.0589	0.0970	0.1927
-27.0733	-11.6263	-55.8108	0.0587	0.0925	0.1918
-27.2444	-11.7103	-56.3711	0.0529	0.0762	0.1729
-27.2805	-11.6691	-56.4898	0.0522	0.0718	0.1708
-27.6023	-11.6816	-57.5461	0.0445	0.0501	0.1456
-27.6494	-11.6229	-57.7007	0.0438	0.0466	0.1433
-25.5320	-11.4363	-50.7673	-0.0787	0.4001	-0.2612
-25.5706	-11.4141	-50.8948	-0.0762	0.4321	-0.2531
-25.5780	-11.4352	-50.9191	-0.0739	0.4353	-0.2457
-25.5848	-11.4603	-50.9416	-0.0715	0.4373	-0.2375
-25.5920	-11.4833	-50.9654	-0.0691	0.4396	-0.2297
-25.6035	-11.4785	-51.0034	-0.0677	0.4486	-0.2253
-25.6178	-11.4622	-51.0507	-0.0665	0.4616	-0.2214
-25.6265	-11.4636	-51.0794	-0.0650	0.4678	-0.2164
-25.6336	-11.4863	-51.1029	-0.0624	0.4690	-0.2079
-25.6851	-11.4795	-51.2730	-0.0526	0.5051	-0.1757
-25.6952	-11.4728	-51.3064	-0.0507	0.5130	-0.1693
-25.7151	-11.4583	-51.3721	-0.0466	0.5287	-0.1558
-25.7333	-11.4547	-51.4325	-0.0420	0.5400	-0.1406
-25.7723	-11.4044	-51.5618	-0.0326	0.5745	-0.1097
-25.7826	-11.3674	-51.5959	-0.0306	0.5913	-0.1031
-25.7901	-11.3587	-51.6205	-0.0283	0.5974	-0.0957
-25.7979	-11.3650	-51.6463	-0.0254	0.5983	-0.0861
-25.8066	-11.3732	-51.6752	-0.0221	0.5984	-0.0751
-25.8130	-11.3881	-51.6966	-0.0194	0.5952	-0.0664
-25.8288	-11.4035	-51.7486	-0.0136	0.5936	-0.0471
-25.8782	-11.4089	-51.9123	0.0040	0.5955	0.0109
-25.9217	-11.5421	-52.0557	0.0165	0.5464	0.0525
-25.9381	-11.5132	-52.1103	0.0220	0.5509	0.0707
-25.9545	-11.4895	-52.1644	0.0275	0.5528	0.0889
-25.9627	-11.4814	-52.1918	0.0302	0.5521	0.0978
-25.9710	-11.4738	-52.2190	0.0329	0.5509	0.1066
-25.9807	-11.4892	-52.2512	0.0351	0.5423	0.1140
-25.9897	-11.4913	-52.2810	0.0375	0.5376	0.1219
-25.9973	-11.4725	-52.3061	0.0403	0.5389	0.1313
-26.0053	-11.4630	-52.3332	0.0429	0.5372	0.1400
-26.0306	-11.5429	-52.4165	0.0455	0.5037	0.1486
-26.0553	-11.5133	-52.4980	0.0524	0.4960	0.1715
-26.1515	-11.6094	-52.8163	0.0635	0.4189	0.2084
-26.1628	-11.6079	-52.8538	0.0649	0.4119	0.2133
-26.1781	-11.6309	-52.9051	0.0655	0.3996	0.2151
-26.2128	-11.6177	-53.0197	0.0695	0.3792	0.2286
-26.2282	-11.6406	-53.0706	0.0696	0.3678	0.2289
-26.2398	-11.6236	-53.1090	0.0713	0.3620	0.2347
-26.2654	-11.6164	-53.1938	0.0733	0.3468	0.2413
-26.2761	-11.6109	-53.2300	0.0742	0.3405	0.2441
-26.2919	-11.6173	-53.2820	0.0746	0.3309	0.2455
-26.3186	-11.5429	-53.3707	0.0792	0.3176	0.2609
-26.3971	-11.6555	-53.6297	0.0753	0.2733	0.2482
-26.4060	-11.6250	-53.6602	0.0766	0.2690	0.2525
-26.4444	-11.6299	-53.7872	0.0763	0.2508	0.2516
-26.2132	-10.7484	-53.0255	0.1407	0.4131	0.4640
-26.2230	-10.7424	-53.0577	0.1407	0.3994	0.4640
-26.2351	-10.7471	-53.0985	0.1391	0.3837	0.4591
-26.7147	-11.6543	-54.6823	0.0692	0.1569	0.2283
-26.7472	-11.6569	-54.7900	0.0680	0.1488	0.2246
-26.8295	-11.6963	-55.0633	0.0646	0.1318	0.2133
-26.8448	-11.6527	-55.1141	0.0648	0.1273	0.2140
-26.9927	-11.6943	-55.6032	0.0594	0.1035	0.1961
-27.0796	-11.6746	-55.8910	0.0569	0.0912	0.1880
-27.4855	-11.6906	-57.2358	0.0461	0.0558	0.1524
-27.5408	-11.6505	-57.4188	0.0451	0.0517	0.1490
-27.5829	-11.5896	-57.5583	0.0444	0.0481	0.1470
-25.5667	-11.4112	-50.8951	-0.0760	0.4322	-0.2540
-25.5750	-11.4263	-50.9228	-0.0740	0.4370	-0.2474
-25.5801	-11.4600	-50.9402	-0.0712	0.4368	-0.2381
-25.5874	-11.4821	-50.9644	-0.0689	0.4393	-0.2303
-25.5990	-11.4765	-51.0031	-0.0676	0.4486	-0.2260
-25.6103	-11.4709	-51.0407	-0.0662	0.4577	-0.2215
-25.6169	-11.4969	-51.0629	-0.0636	0.4584	-0.2128
-25.6271	-11.5080	-51.0967	-0.0613	0.4637	-0.2051
-25.6604	-11.4778	-51.2084	-0.0568	0.4923	-0.1901
-25.6983	-11.4759	-51.3347	-0.0485	0.5173	-0.1625
-25.7089	-11.4594	-51.3702	-0.0467	0.5278	-0.1566
-25.7190	-11.4469	-51.4038	-0.0447	0.5370	-0.1499
-25.7270	-11.4569	-51.4306	-0.0421	0.5389	-0.1412
-25.7358	-11.4568	-51.4602	-0.0397	0.5437	-0.1332
-25.7525	-11.4686	-51.5158	-0.0345	0.5486	-0.1159
-25.7772	-11.3483	-51.5985	-0.0313	0.5979	-0.1052
-25.7839	-11.3534	-51.6208	-0.0288	0.5991	-0.0968
-25.7911	-11.3696	-51.6450	-0.0257	0.5963	-0.0866
-25.8000	-11.3740	-51.6746	-0.0225	0.5979	-0.0759
-25.8305	-11.3806	-51.7767	-0.0114	0.6032	-0.0389
-25.8379	-11.4112	-51.8015	-0.0084	0.5934	-0.0288
-25.8459	-11.4234	-51.8280	-0.0055	0.5900	-0.0192
-25.8551	-11.4101	-51.8587	-0.0024	0.5952	-0.0087
-25.8619	-11.4113	-51.8820	0.0001	0.5949	-0.0004
-25.8699	-11.4101	-51.9089	0.0030	0.5952	0.0091
-25.8868	-11.4672	-51.9652	0.0083	0.5743	0.0271
-25.9460	-11.4790	-52.1634	0.0269	0.5563	0.0891
-25.9548	-11.4808	-52.1925	0.0294	0.5525	0.0976
-25.9727	-11.4896	-52.2523	0.0343	0.5424	0.1138
-25.9818	-11.4946	-52.2828	0.0366	0.5368	0.1216
-25.9987	-11.4847	-52.3398	0.0416	0.5308	0.1381
-26.0391	-11.5366	-52.4748	0.0488	0.4957	0.1623
-26.1433	-11.6219	-52.8232	0.0621	0.4165	0.2070
-26.1531	-11.6107	-52.8559	0.0639	0.4117	0.2130
-26.1801	-11.6331	-52.9469	0.0657	0.3920	0.2191
-26.1995	-11.6036	-53.0118	0.0691	0.3825	0.2304
-26.2307	-11.6331	-53.1158	0.0700	0.3606	0.2336
-26.2439	-11.6415	-53.1600	0.0705	0.3520	0.2352
-26.2591	-11.6491	-53.2109	0.0710	0.3425	0.2370
-26.2775	-11.5967	-53.2732	0.0745	0.3340	0.2487
-26.2899	-11.5959	-53.3144	0.0751	0.3266	0.2505
-26.3054	-11.5994	-53.3664	0.0755	0.3173	0.2518
-26.3139	-11.5719	-53.3947	0.0770	0.3132	0.2570
-26.3849	-11.6583	-53.6319	0.0743	0.2735	0.2481
-26.3964	-11.6369	-53.6712	0.0752	0.2678	0.2512
-26.4537	-11.6495	-53.8627	0.0745	0.2413	0.2489
-26.2030	-10.7484	-53.0258	0.1392	0.4141	0.4647
-26.2118	-10.7399	-53.0551	0.1395	0.4013	0.4658
-26.2248	-10.7432	-53.0995	0.1380	0.3840	0.4611
-26.6270	-11.6209	-54.4429	0.0715	0.1765	0.2389
-26.6458	-11.5997	-54.5060	0.0714	0.1701	0.2387
-26.7312	-11.6586	-54.7912	0.0673	0.1491	0.2249
-26.8196	-11.6385	-55.0881	0.0647	0.1287	0.2161
-26.9732	-11.6951	-55.6016	0.0588	0.1038	0.1965
-27.0375	-11.6404	-55.8166	0.0574	0.0932	0.1918
-27.2415	-11.6865	-56.5004	0.0511	0.0723	0.1707
-27.5645	-11.6016	-57.5806	0.0438	0.0482	0.1466
-25.5174	-11.4679	-50.7435	-0.0765	0.3917	-0.2572
-25.5662	-11.4516	-50.9079	-0.0726	0.4303	-0.2441
-25.5728	-11.4768	-50.9305	-0.0702	0.4322	-0.2361
-25.5812	-11.4922	-50.9589	-0.0682	0.4365	-0.2293
-25.5946	-11.4743	-51.0038	-0.0674	0.4489	-0.2267
-25.6079	-11.4634	-51.0486	-0.0660	0.4604	-0.2221
-25.6134	-11.4875	-51.0671	-0.0637	0.4606	-0.2143
-25.6193	-11.5195	-51.0871	-0.0609	0.4596	-0.2048
-25.6562	-11.4702	-51.2117	-0.0569	0.4943	-0.1912
-25.6662	-11.4648	-51.2455	-0.0551	0.5024	-0.1851
-25.6772	-11.4484	-51.2827	-0.0535	0.5135	-0.1799
-25.7034	-11.4573	-51.3710	-0.0468	0.5283	-0.1571
-25.7119	-11.4611	-51.3997	-0.0444	0.5324	-0.1491
-25.7194	-11.4789	-51.4248	-0.0417	0.5319	-0.1399
-25.7293	-11.4614	-51.4587	-0.0397	0.5420	-0.1333
-25.7406	-11.4238	-51.4967	-0.0381	0.5587	-0.1280
-25.7593	-11.3913	-51.5597	-0.0337	0.5781	-0.1131
-25.7762	-11.3780	-51.6167	-0.0286	0.5900	-0.0959
-25.7837	-11.3883	-51.6421	-0.0258	0.5895	-0.0862
-25.7911	-11.4042	-51.6671	-0.0228	0.5867	-0.0762
-25.8066	-11.4188	-51.7198	-0.0172	0.5862	-0.0572
-25.8319	-11.4105	-51.8050	-0.0085	0.5938	-0.0281
-25.8545	-11.4925	-51.8819	-0.0005	0.5675	-0.0009
-25.8787	-11.4325	-51.9634	0.0078	0.5862	0.0271
-25.8870	-11.4459	-51.9915	0.0105	0.5805	0.0362
-25.9184	-11.4109	-52.0977	0.0218	0.5849	0.0742
-25.9448	-11.4509	-52.1870	0.0291	0.5624	0.0989
-25.9637	-11.4824	-52.2509	0.0336	0.5449	0.1139
-25.9721	-11.4778	-52.2791	0.0361	0.5423	0.1224
-25.9801	-11.4668	-52.3061	0.0387	0.5413	0.1314
-25.9883	-11.4612	-52.3342	0.0412	0.5383	0.1398
-26.0308	-11.5450	-52.4778	0.0476	0.4938	0.1614
-26.0409	-11.5496	-52.5118	0.0496	0.4868	0.1678
-26.1175	-11.5917	-52.7710	0.0606	0.4310	0.2053
-26.1551	-11.6187	-52.8987	0.0640	0.4032	0.2165
-26.1671	-11.6199	-52.9392	0.0652	0.3954	0.2207
-26.1753	-11.5981	-52.9669	0.0672	0.3922	0.2273
-26.2086	-11.6461	-53.0794	0.0676	0.3669	0.2288
-26.2440	-11.6248	-53.1989	0.0711	0.3465	0.2404
-26.2525	-11.6010	-53.2283	0.0727	0.3425	0.2460
-26.2661	-11.6085	-53.2743	0.0730	0.3338	0.2470
-26.2806	-11.6092	-53.3231	0.0736	0.3251	0.2489
-26.2924	-11.5974	-53.3630	0.0746	0.3185	0.2522
-26.2980	-11.5586	-53.3819	0.0766	0.3163	0.2591
-26.3520	-11.6493	-53.5644	0.0736	0.2843	0.2489
-26.3701	-11.6541	-53.6257	0.0736	0.2750	0.2488
-26.3828	-11.6382	-53.6693	0.0743	0.2686	0.2513
-26.3980	-11.6289	-53.7205	0.0747	0.2612	0.2526
-26.4203	-11.6428	-53.7959	0.0741	0.2507	0.2505
-26.4416	-11.6494	-53.8677	0.0737	0.2411	0.2492
-26.1925	-10.7493	-53.0253	0.1375	0.4154	0.4651
-26.2014	-10.7415	-53.0554	0.1378	0.4024	0.4660
-26.2131	-10.7457	-53.0955	0.1364	0.3868	0.4613
-26.6062	-11.6106	-54.4247	0.0712	0.1782	0.2408
-26.7924	-11.6956	-55.0552	0.0634	0.1328	0.2143
-26.8144	-11.6663	-55.1293	0.0631	0.1274	0.2135
-26.9494	-11.6900	-55.5854	0.0584	0.1046	0.1976
-27.0305	-11.6646	-55.8596	0.0562	0.0924	0.1900
-27.2098	-11.6762	-56.4668	0.0509	0.0731	0.1722
-27.4718	-11.6350	-57.3521	0.0447	0.0527	0.1513
-25.5437	-11.3729	-50.8458	-0.0793	0.4240	-0.2685
-25.5505	-11.3874	-50.8689	-0.0776	0.4282	-0.2628
-25.5618	-11.4474	-50.9075	-0.0725	0.4305	-0.2453
-25.5695	-11.4657	-50.9339	-0.0704	0.4342	-0.2382
-25.5781	-11.4784	-50.9635	-0.0685	0.4391	-0.2318
-25.5893	-11.4737	-51.0015	-0.0672	0.4482	-0.2274
-25.6012	-11.4629	-51.0420	-0.0661	0.4589	-0.2235
-25.6091	-11.4881	-51.0691	-0.0633	0.4608	-0.2142
-25.6140	-11.5174	-51.0857	-0.0609	0.4595	-0.2058
-25.6242	-11.5163	-51.1203	-0.0592	0.4667	-0.2001
-25.6740	-11.4230	-51.2898	-0.0544	0.5206	-0.1834
-25.6869	-11.4730	-51.3342	-0.0486	0.5175	-0.1638
-25.6967	-11.4642	-51.3674	-0.0467	0.5257	-0.1572
-25.7068	-11.4489	-51.4017	-0.0449	0.5357	-0.1510
-25.7238	-11.4511	-51.4599	-0.0402	0.5449	-0.1349
-25.7391	-11.4775	-51.5120	-0.0348	0.5452	-0.1167
-25.7594	-11.4158	-51.5809	-0.0310	0.5730	-0.1037
-25.7669	-11.4287	-51.6065	-0.0282	0.5720	-0.0941
-25.8066	-11.4560	-51.7422	-0.0146	0.5752	-0.0479
-25.8161	-11.4366	-51.7748	-0.0118	0.5834	-0.0380
-25.8310	-11.4504	-51.8253	-0.0066	0.5807	-0.0205
-25.8628	-11.4108	-51.9340	0.0044	0.5946	0.0170
-25.8788	-11.4242	-51.9886	0.0099	0.5881	0.0356
-25.9054	-11.5072	-52.0795	0.0172	0.5557	0.0605
-25.9213	-11.4846	-52.1340	0.0226	0.5580	0.0789
-25.9469	-11.4882	-52.2211	0.0301	0.5474	0.1044
-25.9716	-11.4705	-52.3054	0.0377	0.5407	0.1303
-26.0111	-11.5322	-52.4406	0.0449	0.5033	0.1549
-26.0208	-11.5355	-52.4737	0.0469	0.4969	0.1618
-26.0479	-11.5097	-52.5661	0.0539	0.4852	0.1854
-26.1046	-11.5705	-52.7602	0.0604	0.4366	0.2074
-26.1183	-11.5907	-52.8069	0.0612	0.4247	0.2102
-26.1321	-11.6089	-52.8541	0.0620	0.4133	0.2130
-26.1449	-11.6190	-52.8984	0.0630	0.4037	0.2164
-26.1567	-11.6194	-52.9385	0.0643	0.3960	0.2206
-26.1659	-11.6036	-52.9697	0.0660	0.3916	0.2266
-26.2170	-11.6108	-53.1441	0.0698	0.3580	0.2395
-26.2580	-11.6225	-53.2845	0.0715	0.3318	0.2452
-26.2668	-11.5981	-53.3144	0.0731	0.3275	0.2505
-26.2746	-11.5693	-53.3409	0.0748	0.3238	0.2562
-26.2829	-11.5354	-53.3693	0.0767	0.3197	0.2627
-26.3595	-11.6600	-53.6309	0.0725	0.2746	0.2483
-26.3706	-11.6382	-53.6695	0.0734	0.2690	0.2515
-26.3824	-11.6177	-53.7098	0.0743	0.2632	0.2543
-26.3990	-11.6131	-53.7664	0.0744	0.2550	0.2547
-26.1825	-10.7483	-53.0245	0.1361	0.4167	0.4660
-26.1909	-10.7394	-53.0531	0.1366	0.4042	0.4675
-26.2031	-10.7409	-53.0952	0.1354	0.3875	0.4636
-26.7153	-11.7021	-54.8468	0.0646	0.1471	0.2209
-26.7488	-11.7046	-54.9621	0.0635	0.1394	0.2171
-26.7707	-11.6785	-55.0366	0.0632	0.1337	0.2162
-26.7885	-11.6417	-55.0972	0.0632	0.1288	0.2163
-27.0049	-11.6590	-55.8361	0.0559	0.0934	0.1912
-27.1824	-11.6735	-56.4430	0.0506	0.0738	0.1732
-27.3028	-11.6514	-56.8539	0.0477	0.0630	0.1630
-27.4457	-11.6415	-57.3418	0.0444	0.0531	0.1517
-25.5244	-11.3847	-50.7861	-0.0795	0.4081	-0.2714
-25.5353	-11.3859	-50.8237	-0.0784	0.4171	-0.2677
-25.5445	-11.3955	-50.8552	-0.0768	0.4238	-0.2623
-25.5507	-11.4216	-50.8769	-0.0745	0.4261	-0.2543
-25.5574	-11.4456	-50.8999	-0.0722	0.4287	-0.2465
-25.5633	-11.4745	-50.9205	-0.0698	0.4299	-0.2380
-25.5734	-11.4777	-50.9552	-0.0683	0.4371	-0.2329
-25.5851	-11.4697	-50.9953	-0.0672	0.4471	-0.2290
-25.6109	-11.5017	-51.0843	-0.0613	0.4614	-0.2089
-25.6212	-11.4989	-51.1196	-0.0598	0.4693	-0.2034
-25.6470	-11.4537	-51.2083	-0.0574	0.4964	-0.1953
-25.6797	-11.4910	-51.3209	-0.0483	0.5104	-0.1639
-25.6955	-11.5152	-51.3754	-0.0434	0.5141	-0.1472
-25.7178	-11.4535	-51.4520	-0.0404	0.5424	-0.1368
-25.7262	-11.4539	-51.4810	-0.0381	0.5468	-0.1287
-25.7323	-11.4889	-51.5022	-0.0350	0.5402	-0.1181
-25.7618	-11.4062	-51.6032	-0.0292	0.5783	-0.0978
-25.7797	-11.3809	-51.6647	-0.0240	0.5937	-0.0799
-25.7923	-11.4379	-51.7085	-0.0183	0.5783	-0.0604
-25.8082	-11.4432	-51.7630	-0.0129	0.5801	-0.0419
-25.8481	-11.3860	-51.9004	0.0007	0.6035	0.0049
-25.9064	-11.5040	-52.1019	0.0188	0.5546	0.0672
-25.9202	-11.4324	-52.1489	0.0249	0.5724	0.0880
-26.0244	-11.5559	-52.5085	0.0475	0.4864	0.1655
-26.0342	-11.5453	-52.5422	0.0500	0.4826	0.1741
-26.0416	-11.5351	-52.5675	0.0519	0.4799	0.1808
-26.1240	-11.6118	-52.8521	0.0611	0.4135	0.2119
-26.1332	-11.5985	-52.8837	0.0628	0.4090	0.2180
-26.1454	-11.6044	-52.9263	0.0639	0.4001	0.2217
-26.1702	-11.6118	-53.0117	0.0660	0.3831	0.2288
-26.1832	-11.6166	-53.0564	0.0669	0.3742	0.2318
-26.1965	-11.6212	-53.1022	0.0677	0.3653	0.2346
-26.2095	-11.6221	-53.1469	0.0686	0.3570	0.2375
-26.2172	-11.5954	-53.1733	0.0704	0.3538	0.2438
-26.2486	-11.6270	-53.2824	0.0705	0.3323	0.2443
-26.2597	-11.6050	-53.3204	0.0720	0.3265	0.2495
-26.2716	-11.6027	-53.3614	0.0726	0.3194	0.2513
-26.2811	-11.5809	-53.3939	0.0739	0.3144	0.2558
-26.3246	-11.6341	-53.5441	0.0725	0.2884	0.2509
-26.3470	-11.6579	-53.6213	0.0718	0.2764	0.2485
-26.3630	-11.6552	-53.6771	0.0720	0.2682	0.2492
-26.3740	-11.6318	-53.7150	0.0730	0.2628	0.2524
-26.3890	-11.6217	-53.7662	0.0733	0.2555	0.2536
-26.4071	-11.6213	-53.8289	0.0732	0.2468	0.2533
-26.1813	-10.7384	-53.0471	0.1354	0.4075	0.4682
-26.1932	-10.7397	-53.0883	0.1344	0.3909	0.4646
-26.2054	-10.7450	-53.1309	0.1328	0.3751	0.4591
-26.6592	-11.6851	-54.6980	0.0657	0.1579	0.2269
-26.6897	-11.6862	-54.8031	0.0647	0.1500	0.2235
-26.7563	-11.6997	-55.0338	0.0623	0.1348	0.2153
-26.7709	-11.6566	-55.0838	0.0626	0.1303	0.2161
-26.8565	-11.6764	-55.3788	0.0594	0.1145	0.2053
-26.9215	-11.6386	-55.6027	0.0578	0.1026	0.1996
-27.1463	-11.6630	-56.3782	0.0508	0.0755	0.1754
-27.2863	-11.6724	-56.8609	0.0471	0.0635	0.1626
-27.4930	-11.6344	-57.5731	0.0426	0.0493	0.1470
-25.5041	-11.4673	-50.7225	-0.0752	0.3867	-0.2590
-25.5193	-11.4490	-50.7751	-0.0751	0.3998	-0.2584
-25.5337	-11.4319	-50.8252	-0.0748	0.4127	-0.2574
-25.5454	-11.4279	-50.8656	-0.0738	0.4225	-0.2540
-25.5549	-11.4351	-50.8988	-0.0723	0.4294	-0.2488
-25.5629	-11.4510	-50.9264	-0.0704	0.4338	-0.2420
-25.5707	-11.4682	-50.9536	-0.0684	0.4377	-0.2350
-25.5785	-11.4849	-50.9808	-0.0663	0.4415	-0.2279
-25.5884	-11.4879	-51.0151	-0.0647	0.4485	-0.2224
-25.6203	-11.4716	-51.1259	-0.0605	0.4750	-0.2076
-25.6490	-11.4678	-51.2254	-0.0552	0.4966	-0.1890
-25.6732	-11.5106	-51.3096	-0.0478	0.5034	-0.1632
-25.6838	-11.4937	-51.3463	-0.0461	0.5138	-0.1575
-25.7016	-11.4902	-51.4085	-0.0419	0.5252	-0.1428
-25.7106	-11.4866	-51.4395	-0.0398	0.5310	-0.1354
-25.7180	-11.5018	-51.4656	-0.0372	0.5309	-0.1264
-25.7481	-11.4214	-51.5694	-0.0316	0.5685	-0.1069
-25.7582	-11.4007	-51.6044	-0.0291	0.5796	-0.0982
-25.7670	-11.3797	-51.6350	-0.0269	0.5903	-0.0903
-25.7751	-11.3690	-51.6633	-0.0244	0.5971	-0.0817
-25.8013	-11.5092	-51.7549	-0.0128	0.5579	-0.0416
-25.8421	-11.4006	-51.8963	0.0000	0.5977	0.0030
-25.8578	-11.4323	-51.9509	0.0054	0.5857	0.0216
-25.8902	-11.4670	-52.0640	0.0158	0.5686	0.0576
-25.9066	-11.4719	-52.1209	0.0208	0.5625	0.0751
-25.9145	-11.4646	-52.1484	0.0235	0.5621	0.0843
-25.9392	-11.4637	-52.2342	0.0309	0.5523	0.1102
-25.9673	-11.5045	-52.3322	0.0372	0.5272	0.1318
-25.9721	-11.4533	-52.3489	0.0406	0.5380	0.1437
-25.9799	-11.4432	-52.3758	0.0431	0.5361	0.1524
-26.0335	-11.5331	-52.5625	0.0511	0.4812	0.1798
-26.1007	-11.5973	-52.7968	0.0590	0.4260	0.2071
-26.1101	-11.5866	-52.8291	0.0608	0.4212	0.2132
-26.1219	-11.5920	-52.8703	0.0620	0.4125	0.2173
-26.1363	-11.6130	-52.9209	0.0625	0.4004	0.2194
-26.1487	-11.6181	-52.9640	0.0636	0.3917	0.2229
-26.2029	-11.5792	-53.1522	0.0700	0.3590	0.2451
-26.2322	-11.6037	-53.2549	0.0705	0.3386	0.2467
-26.2495	-11.6200	-53.3149	0.0705	0.3272	0.2467
-26.2592	-11.5998	-53.3485	0.0718	0.3221	0.2512
-26.2677	-11.5743	-53.3781	0.0733	0.3177	0.2563
-26.3361	-11.6650	-53.6162	0.0708	0.2774	0.2474
-26.3505	-11.6559	-53.6661	0.0713	0.2701	0.2491
-26.3595	-11.6256	-53.6973	0.0725	0.2657	0.2532
-26.3706	-11.6030	-53.7365	0.0733	0.2600	0.2562
-26.4167	-11.6346	-53.8967	0.0719	0.2383	0.2510
-26.1715	-10.7371	-53.0401	0.1344	0.4112	0.4692
-26.1830	-10.7373	-53.0798	0.1335	0.3950	0.4661
-26.1948	-10.7417	-53.1208	0.1321	0.3794	0.4612
-26.7392	-11.6926	-55.0189	0.0620	0.1358	0.2164
-26.7543	-11.6612	-55.0715	0.0621	0.1315	0.2165
-26.8376	-11.6800	-55.3623	0.0590	0.1157	0.2059
-26.9235	-11.6826	-55.6609	0.0563	0.1017	0.1962
-26.9563	-11.6590	-55.7746	0.0555	0.0962	0.1936
-26.9874	-11.6287	-55.8826	0.0549	0.0910	0.1913
-27.3011	-11.6361	-56.9751	0.0461	0.0603	0.1607
-25.5116	-11.4676	-50.7556	-0.0737	0.3937	-0.2563
-25.5232	-11.4659	-50.7965	-0.0728	0.4028	-0.2530
-25.5372	-11.4498	-50.8454	-0.0724	0.4153	-0.2515
-25.5488	-11.4453	-50.8858	-0.0714	0.4250	-0.2481
-25.5590	-11.4477	-50.9216	-0.0701	0.4329	-0.2433
-25.5671	-11.4614	-50.9505	-0.0682	0.4377	-0.2368
-25.5745	-11.4809	-50.9765	-0.0661	0.4408	-0.2293
-25.5855	-11.4850	-51.0148	-0.0643	0.4486	-0.2230
-25.5961	-11.4711	-51.0521	-0.0635	0.4588	-0.2201
-25.6037	-11.4880	-51.0788	-0.0613	0.4618	-0.2124
-25.6131	-11.5007	-51.1118	-0.0590	0.4666	-0.2044
-25.6265	-11.4699	-51.1586	-0.0583	0.4819	-0.2019
-25.6379	-11.4527	-51.1984	-0.0571	0.4937	-0.1975
-25.6440	-11.4793	-51.2204	-0.0544	0.4928	-0.1880
-25.6807	-11.4720	-51.3489	-0.0466	0.5190	-0.1606
-25.6980	-11.4724	-51.4095	-0.0423	0.5294	-0.1454
-25.7086	-11.4457	-51.4464	-0.0407	0.5426	-0.1397
-25.7173	-11.4385	-51.4774	-0.0385	0.5496	-0.1322
-25.7424	-11.4293	-51.5652	-0.0315	0.5650	-0.1075
-25.7622	-11.3670	-51.6345	-0.0272	0.5940	-0.0922
-25.7701	-11.3613	-51.6621	-0.0246	0.5991	-0.0832
-25.7801	-11.4871	-51.6980	-0.0182	0.5607	-0.0609
-25.8129	-11.4465	-51.8129	-0.0082	0.5801	-0.0257
-25.8296	-11.4232	-51.8715	-0.0026	0.5892	-0.0061
-25.8372	-11.4123	-51.8986	0.0001	0.5931	0.0033
-25.8845	-11.4910	-52.0648	0.0151	0.5607	0.0558
-25.9080	-11.4708	-52.1477	0.0228	0.5600	0.0830
-25.9159	-11.4651	-52.1753	0.0254	0.5588	0.0920
-25.9426	-11.4990	-52.2690	0.0320	0.5375	0.1152
-26.0091	-11.5594	-52.5035	0.0458	0.4866	0.1631
-26.0156	-11.5298	-52.5260	0.0485	0.4887	0.1726
-26.0223	-11.5164	-52.5495	0.0505	0.4871	0.1797
-26.0503	-11.5021	-52.6483	0.0566	0.4704	0.2011
-26.0593	-11.4960	-52.6797	0.0585	0.4649	0.2077
-26.0881	-11.5716	-52.7813	0.0590	0.4327	0.2092
-26.1110	-11.5820	-52.8617	0.0614	0.4156	0.2178
-26.1506	-11.6181	-53.0015	0.0639	0.3849	0.2263
-26.1616	-11.6131	-53.0403	0.0651	0.3781	0.2306
-26.1760	-11.6256	-53.0908	0.0657	0.3676	0.2326
-26.1884	-11.6253	-53.1345	0.0666	0.3596	0.2358
-26.2346	-11.6032	-53.2974	0.0703	0.3314	0.2486
-26.2505	-11.6121	-53.3531	0.0705	0.3212	0.2493
-26.2625	-11.6020	-53.3953	0.0714	0.3143	0.2523
-26.2733	-11.5856	-53.4332	0.0724	0.3083	0.2560
-26.3274	-11.6157	-53.6231	0.0720	0.2772	0.2543
-26.3433	-11.6140	-53.6801	0.0722	0.2686	0.2548
-26.3602	-11.6132	-53.7393	0.0722	0.2600	0.2549
-26.3810	-11.6237	-53.8124	0.0717	0.2498	0.2532
-26.4024	-11.6336	-53.8877	0.0712	0.2399	0.2513
-26.1612	-10.7362	-53.0357	0.1332	0.4140	0.4699
-26.1716	-10.7340	-53.0725	0.1327	0.3987	0.4680
-26.1841	-10.7371	-53.1171	0.1313	0.3814	0.4632
-26.5764	-11.6321	-54.4999	0.0673	0.1733	0.2374
-26.6598	-11.7007	-54.7934	0.0633	0.1518	0.2232
-26.7216	-11.7084	-55.0118	0.0612	0.1371	0.2159
-26.7426	-11.6801	-55.0852	0.0610	0.1316	0.2152
-26.7727	-11.6691	-55.1913	0.0602	0.1249	0.2123
-26.8963	-11.6764	-55.6257	0.0561	0.1033	0.1978
-26.9327	-11.6603	-55.7533	0.0552	0.0973	0.1944
-26.9647	-11.6328	-55.8657	0.0545	0.0920	0.1919
-27.0776	-11.6434	-56.2639	0.0510	0.0787	0.1796
-27.1841	-11.6166	-56.6381	0.0482	0.0677	0.1700
