-25.4427	-11.2838	-53.2926	-0.4663	2.1404	-2.6020
-25.4430	-11.2747	-53.2931	-0.4818	2.1219	-2.7059
-25.4430	-11.2660	-53.2916	-0.4952	2.0743	-2.8018
-25.4433	-11.2604	-53.2924	-0.5057	2.0620	-2.8719
-25.4436	-11.2513	-53.2921	-0.5211	2.0168	-2.9806
-25.4440	-11.2467	-53.2939	-0.5310	2.0153	-3.0452
-25.4443	-11.2403	-53.2945	-0.5431	1.9862	-3.1285
-25.4444	-11.2335	-53.2938	-0.5539	1.9338	-3.2096
-25.4447	-11.2258	-53.2939	-0.5674	1.8789	-3.3076
-25.4449	-11.2206	-53.2945	-0.5772	1.8440	-3.3774
-25.4452	-11.2159	-53.2953	-0.5866	1.8151	-3.4440
-25.4452	-11.2087	-53.2940	-0.5959	1.7320	-3.5203
-25.4455	-11.2076	-53.2956	-0.6009	1.7407	-3.5509
-25.4458	-11.2045	-53.2974	-0.6094	1.7327	-3.6079
-25.4461	-11.1981	-53.2977	-0.6205	1.6677	-3.6919
-25.4463	-11.1931	-53.2977	-0.6282	1.6100	-3.7535
-25.4463	-11.1822	-53.2955	-0.6389	1.4490	-3.8540
-25.4466	-11.1837	-53.2982	-0.6432	1.4984	-3.8723
-25.4467	-11.1744	-53.2970	-0.6526	1.3580	-3.9604
-25.4470	-11.1725	-53.2984	-0.6587	1.3463	-4.0021
-25.4472	-11.1728	-53.2996	-0.6612	1.3641	-4.0152
-25.4473	-11.1618	-53.2982	-0.6704	1.1806	-4.1106
-25.4474	-11.1578	-53.2981	-0.6742	1.1158	-4.1478
-25.4477	-11.1536	-53.2991	-0.6808	1.0548	-4.2025
-25.4479	-11.1497	-53.2991	-0.6843	0.9880	-4.2382
-25.4481	-11.1456	-53.3003	-0.6907	0.9244	-4.2920
-25.4483	-11.1451	-53.3012	-0.6938	0.9227	-4.3124
-25.4484	-11.1413	-53.3014	-0.6970	0.8535	-4.3468
-25.4486	-11.1398	-53.3021	-0.7002	0.8315	-4.3714
-25.4488	-11.1303	-53.3015	-0.7026	0.6441	-4.4234
-25.4490	-11.1317	-53.3027	-0.7059	0.6802	-4.4385
-25.4492	-11.1228	-53.3025	-0.7074	0.4994	-4.4834
-25.4493	-11.1191	-53.3021	-0.7064	0.4236	-4.4913
-25.4493	-11.1155	-53.3018	-0.7051	0.3478	-4.4980
-25.4495	-11.1175	-53.3030	-0.7091	0.3927	-4.5150
-25.4498	-11.1081	-53.3033	-0.7085	0.1976	-4.5492
-25.4499	-11.1045	-53.3032	-0.7067	0.1208	-4.5522
-25.4500	-11.1009	-53.3031	-0.7046	0.0444	-4.5539
-25.4503	-11.0973	-53.3041	-0.7056	-0.0326	-4.5754
-25.4504	-11.0937	-53.3041	-0.7031	-0.1093	-4.5746
-25.4505	-11.0902	-53.3042	-0.7005	-0.1860	-4.5725
-25.4506	-11.0866	-53.3044	-0.6977	-0.2627	-4.5692
-25.4509	-11.0831	-53.3056	-0.6979	-0.3409	-4.5859
-25.4510	-11.0814	-53.3057	-0.6964	-0.3773	-4.5832
-25.4509	-11.0792	-53.3049	-0.6912	-0.4220	-4.5582
-25.4513	-11.0723	-53.3056	-0.6845	-0.5688	-4.5433
-25.4512	-11.0739	-53.3054	-0.6860	-0.5349	-4.5472
-25.4515	-11.0685	-53.3060	-0.6804	-0.6510	-4.5329
-25.4516	-11.0639	-53.3057	-0.6722	-0.7432	-4.4980
-25.4519	-11.0580	-53.3067	-0.6652	-0.8680	-4.4767
-25.4517	-11.0589	-53.3056	-0.6635	-0.8407	-4.4604
-25.4518	-11.0542	-53.3054	-0.6549	-0.9309	-4.4221
-25.4523	-11.0470	-53.3070	-0.6452	-1.0824	-4.3889
-25.4526	-11.0435	-53.3079	-0.6401	-1.1557	-4.3709
-25.4527	-11.0397	-53.3079	-0.6321	-1.2232	-4.3319
-25.4524	-11.0419	-53.3062	-0.6329	-1.1662	-4.3260
-25.4531	-11.0324	-53.3089	-0.6185	-1.3615	-4.2707
-25.4532	-11.0286	-53.3091	-0.6101	-1.4268	-4.2288
-25.4534	-11.0248	-53.3094	-0.6016	-1.4907	-4.1863
-25.4531	-11.0255	-53.3080	-0.6007	-1.4618	-4.1752
-25.4536	-11.0167	-53.3091	-0.5818	-1.6084	-4.0808
-25.4538	-11.0129	-53.3095	-0.5730	-1.6691	-4.0364
-25.4539	-11.0095	-53.3099	-0.5650	-1.7204	-3.9947
-25.4542	-11.0052	-53.3106	-0.5554	-1.7876	-3.9453
-25.4544	-11.0013	-53.3113	-0.5464	-1.8457	-3.8985
-25.4545	-10.9970	-53.3111	-0.5351	-1.8942	-3.8347
-25.4548	-10.9931	-53.3119	-0.5261	-1.9498	-3.7870
-25.4545	-10.9941	-53.3103	-0.5269	-1.9133	-3.7848
-25.4552	-10.9848	-53.3129	-0.5057	-2.0490	-3.6743
-25.4546	-10.9867	-53.3096	-0.5072	-1.9805	-3.6708
-25.4553	-10.9782	-53.3120	-0.4879	-2.0958	-3.5680
-25.4557	-10.9715	-53.3136	-0.4721	-2.1755	-3.4813
-25.4550	-10.9747	-53.3094	-0.4769	-2.0861	-3.4953
-25.4561	-10.9625	-53.3146	-0.4499	-2.2539	-3.3529
-25.4553	-10.9652	-53.3094	-0.4534	-2.1577	-3.3567
-25.4554	-10.9610	-53.3097	-0.4436	-2.1886	-3.2994
-25.4557	-10.9545	-53.3104	-0.4284	-2.2381	-3.2105
-25.4567	-10.9454	-53.3144	-0.4081	-2.3424	-3.0993
-25.4565	-10.9440	-53.3130	-0.4043	-2.3284	-3.0722
-25.4564	-10.9410	-53.3115	-0.3972	-2.3189	-3.0240
-25.4568	-10.9344	-53.3128	-0.3824	-2.3616	-2.9368
-25.4572	-10.9288	-53.3148	-0.3701	-2.4050	-2.8657
-25.4570	-10.9266	-53.3127	-0.3654	-2.3820	-2.8306
-25.4573	-10.9208	-53.3137	-0.3530	-2.4083	-2.7554
-25.4573	-10.9150	-53.3121	-0.3412	-2.3978	-2.6771
-25.4578	-10.9059	-53.3136	-0.3230	-2.4273	-2.5649
-25.4580	-10.9009	-53.3142	-0.3132	-2.4382	-2.5037
-25.4577	-10.8979	-53.3116	-0.3083	-2.4078	-2.4659
-25.4581	-10.8907	-53.3130	-0.2949	-2.4258	-2.3826
-25.4584	-10.8833	-53.3134	-0.2818	-2.4290	-2.2981
-25.4586	-10.8779	-53.3133	-0.2728	-2.4245	-2.2388
-25.4588	-10.8708	-53.3137	-0.2612	-2.4214	-2.1630
-25.4587	-10.8659	-53.3116	-0.2546	-2.3947	-2.1151
-25.4589	-10.8579	-53.3116	-0.2427	-2.3840	-2.0363
-25.4596	-10.8493	-53.3140	-0.2293	-2.3930	-1.9509
-25.4599	-10.8421	-53.3150	-0.2188	-2.3883	-1.8823
-25.4602	-10.8344	-53.3150	-0.2090	-2.3719	-1.8151
-25.4601	-10.8280	-53.3135	-0.2021	-2.3440	-1.7650
-25.4608	-10.8185	-53.3163	-0.1892	-2.3432	-1.6813
-25.4607	-10.8124	-53.3144	-0.1837	-2.3126	-1.6397
-25.4614	-10.8012	-53.3165	-0.1705	-2.2979	-1.5514
-25.4614	-10.7930	-53.3144	-0.1637	-2.2598	-1.5002
-25.4617	-10.7842	-53.3149	-0.1551	-2.2387	-1.4406
-25.4625	-10.7728	-53.3180	-0.1432	-2.2241	-1.3602
-25.4625	-10.7644	-53.3164	-0.1373	-2.1890	-1.3155
-25.4632	-10.7515	-53.3184	-0.1263	-2.1609	-1.2384
-25.4632	-10.7413	-53.3162	-0.1204	-2.1176	-1.1921
-25.4638	-10.7292	-53.3173	-0.1118	-2.0864	-1.1298
-25.4645	-10.7167	-53.3196	-0.1027	-2.0584	-1.0656
-25.4649	-10.7031	-53.3197	-0.0951	-2.0174	-1.0083
-25.4653	-10.6908	-53.3196	-0.0888	-1.9804	-0.9601
-25.4657	-10.6754	-53.3195	-0.0815	-1.9344	-0.9040
-25.4671	-10.6415	-53.3216	-0.0665	-1.8450	-0.7898
-25.5692	-11.5717	-54.1602	0.1318	0.7341	0.9992
-25.5676	-11.5843	-54.1522	0.1289	0.7519	0.9843
-25.5654	-11.5911	-54.1395	0.1275	0.7740	0.9793
-25.5627	-11.5964	-54.1227	0.1263	0.8024	0.9771
-25.5611	-11.6032	-54.1133	0.1246	0.8196	0.9694
-25.5599	-11.6183	-54.1085	0.1208	0.8313	0.9469
-25.5537	-11.6159	-54.0680	0.1205	0.8988	0.9582
-25.5522	-11.6250	-54.0595	0.1177	0.9147	0.9434
-25.5492	-11.6227	-54.0396	0.1174	0.9504	0.9483
-25.5466	-11.6227	-54.0227	0.1165	0.9819	0.9481
-25.5439	-11.6242	-54.0055	0.1149	1.0149	0.9440
-25.5414	-11.6241	-53.9896	0.1136	1.0465	0.9418
-25.5391	-11.6243	-53.9744	0.1120	1.0772	0.9378
-25.5363	-11.6222	-53.9557	0.1106	1.1171	0.9366
-25.5340	-11.6209	-53.9402	0.1091	1.1511	0.9333
-25.5319	-11.6216	-53.9267	0.1070	1.1805	0.9253
-25.5297	-11.6203	-53.9121	0.1052	1.2140	0.9198
-25.5274	-11.6213	-53.8977	0.1024	1.2463	0.9083
-25.5252	-11.6210	-53.8829	0.0998	1.2810	0.8977
-25.5234	-11.6204	-53.8715	0.0976	1.3082	0.8892
-25.5213	-11.6211	-53.8580	0.0945	1.3395	0.8746
-25.5194	-11.6200	-53.8451	0.0918	1.3717	0.8634
-25.5178	-11.6196	-53.8345	0.0893	1.3977	0.8520
-25.5158	-11.6204	-53.8218	0.0856	1.4276	0.8341
-25.5118	-11.6110	-53.7940	0.0804	1.5098	0.8162
-25.5103	-11.6179	-53.7853	0.0753	1.5198	0.7853
-25.5064	-11.6073	-53.7575	0.0688	1.6074	0.7599
-25.5051	-11.6158	-53.7512	0.0638	1.6056	0.7269
-25.5039	-11.6150	-53.7433	0.0609	1.6260	0.7123
-25.5022	-11.6145	-53.7317	0.0564	1.6538	0.6880
-25.5005	-11.6148	-53.7205	0.0516	1.6786	0.6616
-25.4990	-11.6153	-53.7110	0.0472	1.6986	0.6373
-25.4975	-11.6156	-53.7015	0.0429	1.7184	0.6126
-25.4960	-11.6148	-53.6916	0.0384	1.7411	0.5883
-25.4946	-11.6139	-53.6819	0.0340	1.7636	0.5637
-25.4931	-11.6137	-53.6725	0.0294	1.7827	0.5374
-25.4919	-11.6130	-53.6643	0.0254	1.8003	0.5148
-25.4901	-11.6140	-53.6530	0.0193	1.8176	0.4790
-25.4889	-11.6130	-53.6449	0.0152	1.8346	0.4553
-25.4874	-11.6114	-53.6344	0.0098	1.8569	0.4242
-25.4862	-11.6111	-53.6266	0.0055	1.8700	0.3990
-25.4848	-11.6108	-53.6178	0.0006	1.8835	0.3695
-25.4835	-11.6095	-53.6088	-0.0044	1.9003	0.3404
-25.4820	-11.6101	-53.5991	-0.0101	1.9099	0.3055
-25.4805	-11.6096	-53.5893	-0.0158	1.9227	0.2706
-25.4794	-11.6095	-53.5818	-0.0202	1.9301	0.2436
-25.4781	-11.6085	-53.5732	-0.0253	1.9414	0.2124
-25.4768	-11.6094	-53.5648	-0.0303	1.9445	0.1803
-25.4755	-11.6091	-53.5563	-0.0354	1.9510	0.1485
-25.4741	-11.6077	-53.5466	-0.0413	1.9610	0.1123
-25.4728	-11.6081	-53.5382	-0.0463	1.9625	0.0800
-25.4713	-11.6073	-53.5287	-0.0520	1.9673	0.0436
-25.4702	-11.6074	-53.5215	-0.0564	1.9676	0.0154
-25.4691	-11.6064	-53.5143	-0.0608	1.9714	-0.0126
-25.4679	-11.6062	-53.5059	-0.0658	1.9708	-0.0451
-25.4667	-11.6070	-53.4987	-0.0699	1.9659	-0.0730
-25.4651	-11.6064	-53.4881	-0.0761	1.9637	-0.1138
-25.4639	-11.6058	-53.4798	-0.0810	1.9614	-0.1460
-25.4630	-11.6053	-53.4737	-0.0846	1.9593	-0.1697
-25.4614	-11.6052	-53.4631	-0.0905	1.9513	-0.2100
-25.4601	-11.6052	-53.4547	-0.0951	1.9435	-0.2415
-25.4588	-11.6050	-53.4462	-0.0997	1.9352	-0.2730
-25.4578	-11.6050	-53.4399	-0.1030	1.9278	-0.2959
-25.4565	-11.6046	-53.4315	-0.1075	1.9187	-0.3269
-25.4549	-11.6036	-53.4208	-0.1132	1.9074	-0.3660
-25.4538	-11.6041	-53.4132	-0.1167	1.8944	-0.3915
-25.4523	-11.6039	-53.4034	-0.1214	1.8792	-0.4250
-25.4511	-11.6041	-53.3958	-0.1248	1.8655	-0.4502
-25.4499	-11.6042	-53.3880	-0.1282	1.8514	-0.4750
-25.4484	-11.6035	-53.3782	-0.1327	1.8349	-0.5075
-25.4468	-11.6036	-53.3680	-0.1369	1.8144	-0.5384
-25.4457	-11.6045	-53.3610	-0.1392	1.7972	-0.5573
-25.4444	-11.6037	-53.3521	-0.1429	1.7808	-0.5845
-25.4431	-11.6027	-53.3432	-0.1465	1.7640	-0.6114
-25.4414	-11.6030	-53.3324	-0.1501	1.7389	-0.6393
-25.4399	-11.6035	-53.3227	-0.1530	1.7150	-0.6630
-25.4387	-11.6033	-53.3144	-0.1556	1.6957	-0.6836
-25.4372	-11.6026	-53.3050	-0.1586	1.6745	-0.7076
-25.4361	-11.6012	-53.2970	-0.1614	1.6579	-0.7287
-25.4346	-11.6001	-53.2876	-0.1643	1.6364	-0.7518
-25.4336	-11.5915	-53.2790	-0.1702	1.6317	-0.7914
-25.4375	-11.4741	-53.2816	-0.2393	1.8905	-1.1910
-25.4386	-11.4421	-53.2822	-0.2652	1.9596	-1.3465
-25.4393	-11.4289	-53.2842	-0.2769	1.9969	-1.4151
-25.4398	-11.4156	-53.2846	-0.2896	2.0241	-1.4927
-25.4402	-11.4031	-53.2848	-0.3022	2.0469	-1.5701
-25.4407	-11.3896	-53.2853	-0.3167	2.0721	-1.6599
-25.4413	-11.3780	-53.2869	-0.3299	2.0998	-1.7405
-25.4416	-11.3680	-53.2875	-0.3418	2.1166	-1.8149
-25.4418	-11.3578	-53.2866	-0.3543	2.1190	-1.8959
-25.4421	-11.3466	-53.2861	-0.3688	2.1224	-1.9898
-25.4427	-11.3374	-53.2881	-0.3815	2.1432	-2.0686
-25.4431	-11.3303	-53.2894	-0.3918	2.1559	-2.1332
-25.4434	-11.3217	-53.2894	-0.4041	2.1543	-2.2137
-25.4437	-11.3116	-53.2894	-0.4192	2.1484	-2.3132
-25.4441	-11.3037	-53.2904	-0.4317	2.1500	-2.3942
-25.4442	-11.2956	-53.2899	-0.4442	2.1329	-2.4790
-25.4445	-11.2881	-53.2901	-0.4563	2.1203	-2.5607
-25.4450	-11.2826	-53.2920	-0.4666	2.1295	-2.6260
-25.4451	-11.2727	-53.2907	-0.4819	2.0849	-2.7345
-25.4455	-11.2669	-53.2925	-0.4934	2.0867	-2.8087
-25.4458	-11.2603	-53.2927	-0.5048	2.0619	-2.8880
-25.4461	-11.2557	-53.2943	-0.5145	2.0616	-2.9510
-25.4465	-11.2481	-53.2952	-0.5287	2.0353	-3.0489
-25.4467	-11.2408	-53.2952	-0.5417	1.9925	-3.1416
-25.4469	-11.2345	-53.2948	-0.5521	1.9468	-3.2191
-25.4472	-11.2307	-53.2960	-0.5605	1.9360	-3.2758
-25.4475	-11.2264	-53.2970	-0.5695	1.9168	-3.3379
-25.4476	-11.2183	-53.2960	-0.5818	1.8369	-3.4333
-25.4478	-11.2137	-53.2969	-0.5912	1.8077	-3.5008
-25.4480	-11.2100	-53.2973	-0.5981	1.7778	-3.5511
-25.4478	-11.1976	-53.2938	-0.6107	1.6031	-3.6672
-25.4482	-11.1946	-53.2957	-0.6193	1.5928	-3.7250
-25.4487	-11.1927	-53.2981	-0.6274	1.5988	-3.7773
-25.4487	-11.1891	-53.2977	-0.6318	1.5496	-3.8158
-25.4489	-11.1832	-53.2975	-0.6398	1.4718	-3.8831
-25.4491	-11.1778	-53.2977	-0.6474	1.4006	-3.9463
-25.4492	-11.1706	-53.2973	-0.6555	1.2918	-4.0205
-25.4495	-11.1682	-53.2987	-0.6618	1.2702	-4.0654
-25.4496	-11.1623	-53.2979	-0.6663	1.1707	-4.1141
-25.4498	-11.1581	-53.2988	-0.6730	1.1106	-4.1693
-25.4500	-11.1541	-53.2989	-0.6765	1.0447	-4.2057
-25.4502	-11.1555	-53.3002	-0.6792	1.0804	-4.2164
-25.4503	-11.1463	-53.2991	-0.6833	0.9100	-4.2759
-25.4506	-11.1423	-53.3003	-0.6895	0.8452	-4.3290
-25.4507	-11.1384	-53.3006	-0.6925	0.7754	-4.3621
-25.4509	-11.1346	-53.3009	-0.6953	0.7053	-4.3943
-25.4511	-11.1308	-53.3013	-0.6980	0.6339	-4.4256
-25.4513	-11.1270	-53.3018	-0.7004	0.5616	-4.4559
-25.4514	-11.1234	-53.3014	-0.6995	0.4864	-4.4649
-25.4514	-11.1236	-53.3014	-0.6996	0.4898	-4.4645
-25.4516	-11.1184	-53.3019	-0.7013	0.3867	-4.4954
-25.4519	-11.1123	-53.3024	-0.7022	0.2622	-4.5255
-25.4521	-11.1087	-53.3032	-0.7037	0.1866	-4.5504
-25.4522	-11.1051	-53.3031	-0.7019	0.1102	-4.5532
-25.4522	-11.1052	-53.3031	-0.7020	0.1138	-4.5531
-25.4526	-11.0979	-53.3040	-0.7007	-0.0436	-4.5761
-25.4526	-11.0961	-53.3040	-0.6996	-0.0804	-4.5758
-25.4527	-11.0949	-53.3040	-0.6987	-0.1070	-4.5753
-25.4528	-11.0899	-53.3042	-0.6950	-0.2143	-4.5721
-25.4531	-11.0835	-53.3045	-0.6897	-0.3520	-4.5644
-25.4532	-11.0799	-53.3048	-0.6865	-0.4285	-4.5583
-25.4534	-11.0763	-53.3051	-0.6831	-0.5049	-4.5510
-25.4534	-11.0765	-53.3051	-0.6833	-0.5009	-4.5514
-25.4538	-11.0692	-53.3060	-0.6757	-0.6576	-4.5326
-25.4536	-11.0707	-53.3048	-0.6742	-0.6208	-4.5162
-25.4537	-11.0671	-53.3053	-0.6704	-0.6965	-4.5058
-25.4542	-11.0584	-53.3068	-0.6602	-0.8805	-4.4750
-25.4541	-11.0580	-53.3058	-0.6568	-0.8825	-4.4533
-25.4542	-11.0542	-53.3056	-0.6493	-0.9531	-4.4182
-25.4544	-11.0507	-53.3063	-0.6447	-1.0270	-4.4023
-25.4546	-11.0485	-53.3068	-0.6417	-1.0716	-4.3921
-25.4550	-11.0401	-53.3079	-0.6271	-1.2357	-4.3291
-25.4547	-11.0414	-53.3066	-0.6266	-1.1975	-4.3183
-25.4552	-11.0330	-53.3080	-0.6115	-1.3582	-4.2511
-25.4555	-11.0290	-53.3092	-0.6052	-1.4386	-4.2255
-25.4553	-11.0276	-53.3076	-0.5986	-1.4407	-4.1828
-25.4555	-11.0233	-53.3080	-0.5894	-1.5131	-4.1372
-25.4554	-11.0232	-53.3070	-0.5871	-1.5028	-4.1201
-25.4561	-11.0133	-53.3097	-0.5683	-1.6808	-4.0322
-25.4562	-11.0091	-53.3093	-0.5570	-1.7332	-3.9692
-25.4559	-11.0098	-53.3079	-0.5566	-1.7046	-3.9608
-25.4562	-11.0054	-53.3087	-0.5471	-1.7717	-3.9118
-25.4567	-10.9970	-53.3104	-0.5283	-1.8971	-3.8134
-25.4564	-10.9981	-53.3088	-0.5289	-1.8607	-3.8106
-25.4572	-10.9891	-53.3122	-0.5103	-2.0068	-3.7175
-25.4574	-10.9847	-53.3123	-0.4991	-2.0513	-3.6533
-25.4577	-10.9808	-53.3133	-0.4900	-2.1032	-3.6042
-25.4579	-10.9764	-53.3136	-0.4788	-2.1452	-3.5398
-25.4578	-10.9742	-53.3126	-0.4724	-2.1478	-3.4984
-25.4581	-10.9688	-53.3136	-0.4595	-2.2032	-3.4251
-25.4574	-10.9697	-53.3095	-0.4590	-2.1361	-3.4085
-25.4581	-10.9615	-53.3124	-0.4407	-2.2337	-3.3083
-25.4581	-10.9577	-53.3113	-0.4311	-2.2402	-3.2470
-25.4578	-10.9553	-53.3093	-0.4245	-2.2253	-3.2010
-25.4583	-10.9512	-53.3109	-0.4156	-2.2696	-3.1520
-25.4585	-10.9456	-53.3113	-0.4027	-2.3016	-3.0737
-25.4587	-10.9399	-53.3118	-0.3898	-2.3324	-2.9960
-25.4587	-10.9359	-53.3111	-0.3810	-2.3359	-2.9391
-25.4590	-10.9306	-53.3115	-0.3695	-2.3580	-2.8681
-25.4590	-10.9266	-53.3108	-0.3610	-2.3603	-2.8134
-25.4595	-10.9210	-53.3130	-0.3491	-2.4016	-2.7438
-25.4599	-10.9136	-53.3141	-0.3338	-2.4292	-2.6496
-25.4597	-10.9091	-53.3115	-0.3254	-2.4009	-2.5893
-25.4598	-10.9038	-53.3110	-0.3155	-2.3987	-2.5244
-25.4599	-10.8969	-53.3106	-0.3029	-2.3986	-2.4422
-25.4602	-10.8906	-53.3112	-0.2916	-2.4060	-2.3701
-25.4607	-10.8830	-53.3133	-0.2778	-2.4275	-2.2838
-25.4604	-10.8786	-53.3106	-0.2717	-2.3954	-2.2381
-25.4607	-10.8715	-53.3109	-0.2603	-2.3930	-2.1631
-25.4615	-10.8633	-53.3141	-0.2462	-2.4161	-2.0759
-25.4613	-10.8576	-53.3115	-0.2392	-2.3824	-2.0234
-25.4618	-10.8494	-53.3134	-0.2268	-2.3870	-1.9434
-25.4620	-10.8418	-53.3133	-0.2167	-2.3709	-1.8747
-25.4621	-10.8350	-53.3122	-0.2087	-2.3471	-1.8180
-25.4624	-10.8281	-53.3130	-0.1999	-2.3384	-1.7584
-25.4628	-10.8186	-53.3139	-0.1883	-2.3235	-1.6803
-25.4630	-10.8105	-53.3133	-0.1798	-2.2976	-1.6197
-25.4634	-10.8013	-53.3141	-0.1699	-2.2794	-1.5513
-25.4641	-10.7913	-53.3165	-0.1586	-2.2677	-1.4753
-25.4642	-10.7825	-53.3153	-0.1514	-2.2341	-1.4219
-25.4646	-10.7724	-53.3164	-0.1420	-2.2106	-1.3564
-25.4650	-10.7626	-53.3170	-0.1339	-2.1845	-1.2979
-25.4655	-10.7507	-53.3175	-0.1246	-2.1511	-1.2307
-25.4657	-10.7395	-53.3169	-0.1172	-2.1135	-1.1756
-25.4666	-10.7266	-53.3197	-0.1072	-2.0873	-1.1048
-25.4669	-10.7153	-53.3197	-0.1005	-2.0522	-1.0545
-25.4672	-10.7013	-53.3186	-0.0935	-2.0048	-0.9996
-25.4676	-10.6876	-53.3191	-0.0863	-1.9662	-0.9454
-25.4681	-10.6730	-53.3195	-0.0794	-1.9250	-0.8921
-25.4694	-10.6395	-53.3209	-0.0653	-1.8349	-0.7828
-25.5748	-11.6005	-54.1888	0.1236	0.7054	0.9474
-25.5729	-11.6072	-54.1777	0.1224	0.7234	0.9429
-25.5691	-11.6078	-54.1534	0.1226	0.7584	0.9510
-25.5619	-11.6043	-54.1051	0.1236	0.8325	0.9715
-25.5613	-11.6181	-54.1038	0.1201	0.8380	0.9498
-25.5591	-11.6257	-54.0905	0.1179	0.8613	0.9401
-25.5559	-11.6236	-54.0695	0.1178	0.8964	0.9465
-25.5532	-11.6237	-54.0517	0.1171	0.9278	0.9479
-25.5505	-11.6234	-54.0339	0.1163	0.9602	0.9489
-25.5476	-11.6230	-54.0145	0.1153	0.9969	0.9490
-25.5452	-11.6213	-53.9989	0.1146	1.0276	0.9505
-25.5427	-11.6229	-53.9825	0.1127	1.0604	0.9445
-25.5401	-11.6233	-53.9656	0.1109	1.0952	0.9394
-25.5378	-11.6223	-53.9500	0.1094	1.1287	0.9363
-25.5356	-11.6225	-53.9358	0.1076	1.1595	0.9301
-25.5338	-11.6222	-53.9234	0.1059	1.1871	0.9244
-25.5313	-11.6210	-53.9071	0.1037	1.2246	0.9175
-25.5292	-11.6202	-53.8933	0.1016	1.2571	0.9099
-25.5272	-11.6223	-53.8802	0.0985	1.2861	0.8948
-25.5252	-11.6216	-53.8671	0.0960	1.3175	0.8847
-25.5230	-11.6206	-53.8525	0.0931	1.3533	0.8726
-25.5215	-11.6203	-53.8419	0.0906	1.3791	0.8617
-25.5197	-11.6206	-53.8302	0.0876	1.4071	0.8471
-25.5175	-11.6210	-53.8159	0.0836	1.4412	0.8273
-25.5137	-11.6098	-53.7890	0.0791	1.5246	0.8139
-25.5125	-11.6187	-53.7829	0.0742	1.5248	0.7821
-25.5106	-11.6182	-53.7705	0.0702	1.5553	0.7614
-25.5092	-11.6165	-53.7605	0.0671	1.5827	0.7467
-25.5074	-11.6164	-53.7487	0.0627	1.6107	0.7232
-25.5057	-11.6161	-53.7371	0.0582	1.6386	0.6993
-25.5041	-11.6161	-53.7270	0.0541	1.6620	0.6769
-25.5026	-11.6158	-53.7171	0.0500	1.6851	0.6541
-25.5013	-11.6158	-53.7086	0.0463	1.7037	0.6332
-25.4997	-11.6165	-53.6979	0.0413	1.7248	0.6045
-25.4982	-11.6157	-53.6881	0.0369	1.7474	0.5802
-25.4970	-11.6152	-53.6798	0.0330	1.7654	0.5581
-25.4952	-11.6157	-53.6682	0.0272	1.7867	0.5241
-25.4938	-11.6133	-53.6583	0.0226	1.8121	0.4991
-25.4926	-11.6134	-53.6504	0.0185	1.8260	0.4747
-25.4909	-11.6112	-53.6385	0.0125	1.8530	0.4407
-25.4899	-11.6097	-53.6316	0.0090	1.8690	0.4205
-25.4885	-11.6115	-53.6231	0.0040	1.8757	0.3894
-25.4870	-11.6115	-53.6132	-0.0015	1.8899	0.3557
-25.4856	-11.6112	-53.6032	-0.0071	1.9035	0.3214
-25.4844	-11.6104	-53.5956	-0.0115	1.9153	0.2951
-25.4829	-11.6108	-53.5859	-0.0171	1.9242	0.2598
-25.4818	-11.6098	-53.5783	-0.0215	1.9352	0.2330
-25.4807	-11.6086	-53.5708	-0.0260	1.9459	0.2059
-25.4794	-11.6094	-53.5623	-0.0310	1.9490	0.1736
-25.4779	-11.6091	-53.5527	-0.0367	1.9556	0.1374
-25.4769	-11.6086	-53.5453	-0.0411	1.9612	0.1095
-25.4754	-11.6090	-53.5359	-0.0467	1.9627	0.0728
-25.4740	-11.6092	-53.5263	-0.0523	1.9636	0.0360
-25.4727	-11.6083	-53.5179	-0.0574	1.9677	0.0034
-25.4716	-11.6072	-53.5106	-0.0618	1.9713	-0.0248
-25.4702	-11.6069	-53.5011	-0.0674	1.9703	-0.0618
-25.4691	-11.6066	-53.4938	-0.0717	1.9690	-0.0902
-25.4680	-11.6072	-53.4864	-0.0758	1.9635	-0.1184
-25.4666	-11.6065	-53.4770	-0.0813	1.9607	-0.1549
-25.4653	-11.6067	-53.4686	-0.0859	1.9539	-0.1866
-25.4641	-11.6058	-53.4603	-0.0907	1.9503	-0.2187
-25.4627	-11.6056	-53.4508	-0.0959	1.9419	-0.2542
-25.4614	-11.6043	-53.4425	-0.1006	1.9372	-0.2862
-25.4603	-11.6042	-53.4352	-0.1044	1.9289	-0.3132
-25.4592	-11.6039	-53.4279	-0.1083	1.9203	-0.3399
-25.4576	-11.6028	-53.4172	-0.1139	1.9087	-0.3790
-25.4565	-11.6032	-53.4097	-0.1173	1.8955	-0.4046
-25.4552	-11.6033	-53.4010	-0.1214	1.8810	-0.4340
-25.4539	-11.6032	-53.3922	-0.1254	1.8661	-0.4630
-25.4527	-11.6042	-53.3843	-0.1285	1.8484	-0.4867
-25.4513	-11.6037	-53.3755	-0.1323	1.8328	-0.5152
-25.4502	-11.6035	-53.3678	-0.1356	1.8180	-0.5392
-25.4486	-11.6034	-53.3575	-0.1396	1.7971	-0.5697
-25.4470	-11.6040	-53.3469	-0.1432	1.7724	-0.5985
-25.4459	-11.6034	-53.3391	-0.1462	1.7568	-0.6213
-25.4443	-11.6026	-53.3287	-0.1500	1.7348	-0.6503
-25.4429	-11.6045	-53.3198	-0.1520	1.7092	-0.6687
-25.4413	-11.6034	-53.3093	-0.1556	1.6867	-0.6966
-25.4402	-11.6035	-53.3021	-0.1576	1.6687	-0.7130
-25.4388	-11.6025	-53.2926	-0.1605	1.6474	-0.7363
-25.4374	-11.6013	-53.2831	-0.1633	1.6259	-0.7591
-25.4417	-11.4527	-53.2817	-0.2543	1.9404	-1.2963
-25.4423	-11.4375	-53.2825	-0.2671	1.9756	-1.3742
-25.4429	-11.4238	-53.2839	-0.2794	2.0104	-1.4488
-25.4435	-11.4124	-53.2852	-0.2904	2.0396	-1.5155
-25.4437	-11.3990	-53.2842	-0.3042	2.0559	-1.6030
-25.4442	-11.3867	-53.2849	-0.3175	2.0793	-1.6855
-25.4445	-11.3749	-53.2847	-0.3310	2.0935	-1.7717
-25.4450	-11.3654	-53.2860	-0.3424	2.1137	-1.8425
-25.4453	-11.3551	-53.2864	-0.3553	2.1260	-1.9253
-25.4457	-11.3461	-53.2869	-0.3670	2.1361	-2.0009
-25.4462	-11.3359	-53.2879	-0.3809	2.1481	-2.0900
-25.4464	-11.3256	-53.2875	-0.3953	2.1436	-2.1851
-25.4468	-11.3176	-53.2881	-0.4071	2.1458	-2.2625
-25.4472	-11.3101	-53.2894	-0.4187	2.1529	-2.3372
-25.4475	-11.3023	-53.2904	-0.4312	2.1543	-2.4193
-25.4479	-11.2957	-53.2912	-0.4420	2.1534	-2.4909
-25.4483	-11.2870	-53.2918	-0.4562	2.1426	-2.5869
-25.4485	-11.2786	-53.2914	-0.4698	2.1168	-2.6813
-25.4488	-11.2733	-53.2924	-0.4794	2.1121	-2.7450
-25.4490	-11.2676	-53.2930	-0.4896	2.1007	-2.8147
-25.4492	-11.2585	-53.2926	-0.5048	2.0575	-2.9231
-25.4495	-11.2544	-53.2935	-0.5126	2.0495	-2.9760
-25.4497	-11.2465	-53.2930	-0.5258	2.0014	-3.0717
-25.4501	-11.2400	-53.2947	-0.5392	1.9856	-3.1633
-25.4503	-11.2328	-53.2938	-0.5504	1.9253	-3.2493
-25.4506	-11.2299	-53.2956	-0.5579	1.9281	-3.2983
-25.4508	-11.2247	-53.2961	-0.5677	1.8940	-3.3689
-25.4509	-11.2152	-53.2944	-0.5809	1.7897	-3.4760
-25.4511	-11.2129	-53.2955	-0.5865	1.7831	-3.5141
-25.4513	-11.2064	-53.2956	-0.5973	1.7203	-3.5976
-25.4517	-11.2034	-53.2975	-0.6059	1.7119	-3.6554
-25.4518	-11.1978	-53.2971	-0.6139	1.6469	-3.7210
-25.4520	-11.1929	-53.2972	-0.6214	1.5885	-3.7826
-25.4520	-11.1825	-53.2953	-0.6316	1.4344	-3.8795
-25.4524	-11.1825	-53.2974	-0.6366	1.4586	-3.9077
-25.4526	-11.1782	-53.2979	-0.6437	1.4047	-3.9649
-25.4528	-11.1738	-53.2985	-0.6508	1.3490	-4.0220
-25.4529	-11.1713	-53.2987	-0.6544	1.3136	-4.0528
-25.4529	-11.1644	-53.2977	-0.6594	1.1962	-4.1079
-25.4532	-11.1573	-53.2978	-0.6666	1.0814	-4.1779
-25.4534	-11.1592	-53.2993	-0.6690	1.1269	-4.1856
-25.4536	-11.1493	-53.2989	-0.6764	0.9531	-4.2676
-25.4538	-11.1454	-53.2990	-0.6796	0.8848	-4.3021
-25.4541	-11.1433	-53.3006	-0.6857	0.8582	-4.3477
-25.4541	-11.1378	-53.2996	-0.6856	0.7466	-4.3682
-25.4544	-11.1338	-53.3010	-0.6914	0.6789	-4.4199
-25.4544	-11.1302	-53.3004	-0.6909	0.6046	-4.4308
-25.4547	-11.1264	-53.3009	-0.6932	0.5326	-4.4606
-25.4549	-11.1227	-53.3015	-0.6954	0.4593	-4.4895
-25.4549	-11.1191	-53.3012	-0.6943	0.3840	-4.4968
-25.4550	-11.1183	-53.3011	-0.6941	0.3678	-4.4981
-25.4552	-11.1117	-53.3016	-0.6947	0.2335	-4.5282
-25.4554	-11.1128	-53.3027	-0.6984	0.2589	-4.5477
-25.4557	-11.1045	-53.3033	-0.6975	0.0823	-4.5760
-25.4557	-11.1028	-53.3033	-0.6965	0.0455	-4.5767
-25.4559	-11.0964	-53.3023	-0.6892	-0.0912	-4.5556
-25.4560	-11.0956	-53.3033	-0.6918	-0.1080	-4.5764
-25.4562	-11.0901	-53.3035	-0.6878	-0.2255	-4.5727
-25.4563	-11.0866	-53.3037	-0.6850	-0.3021	-4.5687
-25.4564	-11.0839	-53.3038	-0.6827	-0.3588	-4.5649
-25.4566	-11.0794	-53.3042	-0.6787	-0.4556	-4.5569
-25.4568	-11.0758	-53.3046	-0.6753	-0.5319	-4.5491
-25.4567	-11.0770	-53.3044	-0.6764	-0.5081	-4.5517
-25.4570	-11.0725	-53.3049	-0.6717	-0.6045	-4.5406
-25.4573	-11.0641	-53.3052	-0.6596	-0.7764	-4.4943
-25.4575	-11.0615	-53.3056	-0.6566	-0.8320	-4.4848
-25.4575	-11.0577	-53.3053	-0.6492	-0.9033	-4.4502
-25.4574	-11.0589	-53.3051	-0.6506	-0.8800	-4.4547
-25.4578	-11.0504	-53.3058	-0.6371	-1.0476	-4.3985
-25.4577	-11.0520	-53.3055	-0.6392	-1.0147	-4.4059
-25.4582	-11.0431	-53.3066	-0.6244	-1.1889	-4.3426
-25.4585	-11.0396	-53.3076	-0.6192	-1.2619	-4.3227
-25.4586	-11.0358	-53.3076	-0.6111	-1.3280	-4.2822
-25.4588	-11.0311	-53.3081	-0.6015	-1.4121	-4.2349
-25.4585	-11.0333	-53.3063	-0.6027	-1.3559	-4.2317
-25.4590	-11.0244	-53.3083	-0.5863	-1.5212	-4.1560
-25.4592	-11.0205	-53.3086	-0.5778	-1.5839	-4.1122
-25.4594	-11.0167	-53.3090	-0.5693	-1.6452	-4.0679
-25.4589	-11.0184	-53.3062	-0.5684	-1.5830	-4.0506
-25.4593	-11.0131	-53.3072	-0.5576	-1.6701	-3.9961
-25.4599	-11.0046	-53.3098	-0.5407	-1.8160	-3.9132
-25.4600	-11.0003	-53.3096	-0.5296	-1.8650	-3.8497
-25.4599	-10.9991	-53.3090	-0.5260	-1.8707	-3.8267
-25.4605	-10.9925	-53.3112	-0.5119	-1.9761	-3.7544
-25.4602	-10.9918	-53.3093	-0.5079	-1.9561	-3.7243
-25.4601	-10.9915	-53.3084	-0.5061	-1.9450	-3.7100
-25.4606	-10.9843	-53.3099	-0.4898	-2.0381	-3.6212
-25.4606	-10.9812	-53.3093	-0.4816	-2.0576	-3.5710
-25.4607	-10.9772	-53.3093	-0.4717	-2.0918	-3.5124
-25.4609	-10.9727	-53.3097	-0.4609	-2.1330	-3.4493
-25.4612	-10.9662	-53.3102	-0.4456	-2.1864	-3.3586
-25.4617	-10.9594	-53.3123	-0.4303	-2.2605	-3.2719
-25.4616	-10.9557	-53.3112	-0.4208	-2.2664	-3.2108
-25.4614	-10.9542	-53.3098	-0.4170	-2.2529	-3.1827
-25.4616	-10.9505	-53.3100	-0.4084	-2.2742	-3.1307
-25.4618	-10.9453	-53.3100	-0.3965	-2.2994	-3.0575
-25.4625	-10.9369	-53.3127	-0.3781	-2.3693	-2.9497
-25.4625	-10.9329	-53.3120	-0.3695	-2.3720	-2.8931
-25.4623	-10.9303	-53.3103	-0.3638	-2.3558	-2.8527
-25.4627	-10.9236	-53.3120	-0.3497	-2.3948	-2.7675
-25.4631	-10.9177	-53.3131	-0.3377	-2.4201	-2.6930
-25.4634	-10.9123	-53.3139	-0.3267	-2.4381	-2.6245
-25.4632	-10.9078	-53.3113	-0.3185	-2.4097	-2.5648
-25.4636	-10.9007	-53.3125	-0.3050	-2.4288	-2.4796
-25.4637	-10.8942	-53.3118	-0.2936	-2.4225	-2.4029
-25.4638	-10.8888	-53.3116	-0.2844	-2.4186	-2.3416
-25.4639	-10.8823	-53.3112	-0.2735	-2.4115	-2.2687
-25.4641	-10.8764	-53.3116	-0.2639	-2.4121	-2.2050
-25.4644	-10.8692	-53.3120	-0.2526	-2.4090	-2.1304
-25.4650	-10.8612	-53.3136	-0.2398	-2.4145	-2.0471
-25.4648	-10.8550	-53.3116	-0.2321	-2.3852	-1.9904
-25.4652	-10.8477	-53.3125	-0.2217	-2.3810	-1.9212
-25.4657	-10.8400	-53.3142	-0.2107	-2.3804	-1.8484
-25.4654	-10.8333	-53.3114	-0.2040	-2.3413	-1.7971
-25.4662	-10.8233	-53.3146	-0.1904	-2.3447	-1.7078
-25.4665	-10.8155	-53.3151	-0.1814	-2.3285	-1.6457
-25.4664	-10.8087	-53.3127	-0.1757	-2.2920	-1.6007
-25.4668	-10.7995	-53.3136	-0.1659	-2.2738	-1.5329
-25.4672	-10.7895	-53.3142	-0.1561	-2.2495	-1.4634
-25.4678	-10.7789	-53.3158	-0.1458	-2.2288	-1.3915
-25.4681	-10.7692	-53.3162	-0.1375	-2.2023	-1.3317
-25.4683	-10.7590	-53.3157	-0.1300	-2.1683	-1.2754
-25.4686	-10.7488	-53.3153	-0.1228	-2.1353	-1.2215
-25.4694	-10.7346	-53.3182	-0.1115	-2.1060	-1.1416
-25.4699	-10.7220	-53.3183	-0.1037	-2.0677	-1.0830
-25.4704	-10.7112	-53.3197	-0.0967	-2.0403	-1.0317
-25.4708	-10.6967	-53.3195	-0.0893	-1.9956	-0.9737
-25.4711	-10.6817	-53.3184	-0.0827	-1.9467	-0.9210
-25.4716	-10.6670	-53.3190	-0.0760	-1.9065	-0.8687
-25.4725	-10.6506	-53.3215	-0.0681	-1.8676	-0.8096
-25.4729	-10.6353	-53.3216	-0.0626	-1.8253	-0.7651
-25.5728	-11.5801	-54.1555	0.1280	0.7429	0.9913
-25.5717	-11.5958	-54.1513	0.1245	0.7558	0.9702
-25.5656	-11.5995	-54.1116	0.1239	0.8192	0.9784
-25.5645	-11.6101	-54.1067	0.1212	0.8302	0.9629
-25.5625	-11.6159	-54.0938	0.1196	0.8527	0.9565
-25.5603	-11.6208	-54.0802	0.1181	0.8765	0.9510
-25.5579	-11.6240	-54.0652	0.1168	0.9028	0.9477
-25.5547	-11.6256	-54.0443	0.1155	0.9399	0.9462
-25.5521	-11.6251	-54.0267	0.1147	0.9725	0.9472
-25.5497	-11.6230	-54.0102	0.1142	1.0040	0.9501
-25.5468	-11.6245	-53.9913	0.1124	1.0411	0.9449
-25.5446	-11.6231	-53.9766	0.1114	1.0713	0.9446
-25.5423	-11.6224	-53.9609	0.1100	1.1044	0.9418
-25.5401	-11.6228	-53.9466	0.1083	1.1348	0.9359
-25.5376	-11.6215	-53.9294	0.1064	1.1730	0.9312
-25.5353	-11.6220	-53.9142	0.1040	1.2067	0.9218
-25.5334	-11.6238	-53.9021	0.1015	1.2332	0.9102
-25.5311	-11.6236	-53.8871	0.0989	1.2677	0.8997
-25.5295	-11.6208	-53.8757	0.0977	1.2968	0.8969
-25.5273	-11.6224	-53.8610	0.0941	1.3301	0.8796
-25.5254	-11.6222	-53.8487	0.0914	1.3598	0.8674
-25.5238	-11.6219	-53.8381	0.0890	1.3857	0.8562
-25.5220	-11.6203	-53.8254	0.0862	1.4183	0.8445
-25.5200	-11.6191	-53.8118	0.0829	1.4532	0.8290
-25.5181	-11.6202	-53.7997	0.0790	1.4809	0.8087
-25.5167	-11.6198	-53.7900	0.0762	1.5052	0.7943
-25.5150	-11.6181	-53.7783	0.0729	1.5365	0.7788
-25.5130	-11.6180	-53.7649	0.0683	1.5688	0.7546
-25.5115	-11.6152	-53.7546	0.0654	1.5990	0.7413
-25.5100	-11.6155	-53.7446	0.0616	1.6225	0.7201
-25.5083	-11.6118	-53.7329	0.0580	1.6579	0.7033
-25.5067	-11.6121	-53.7220	0.0534	1.6829	0.6774
-25.5055	-11.6169	-53.7154	0.0493	1.6864	0.6509
-25.5041	-11.6173	-53.7058	0.0450	1.7063	0.6265
-25.5025	-11.6161	-53.6945	0.0402	1.7335	0.6000
-25.5009	-11.6156	-53.6836	0.0353	1.7574	0.5717
-25.4998	-11.6138	-53.6762	0.0321	1.7774	0.5545
-25.4984	-11.6135	-53.6668	0.0275	1.7965	0.5279
-25.4970	-11.6130	-53.6576	0.0230	1.8152	0.5010
-25.4953	-11.6129	-53.6462	0.0171	1.8357	0.4659
-25.4941	-11.6119	-53.6381	0.0130	1.8527	0.4419
-25.4928	-11.6118	-53.6292	0.0082	1.8669	0.4129
-25.4912	-11.6121	-53.6182	0.0021	1.8823	0.3755
-25.4902	-11.6114	-53.6116	-0.0015	1.8940	0.3538
-25.4887	-11.6111	-53.6017	-0.0071	1.9076	0.3196
-25.4874	-11.6095	-53.5929	-0.0120	1.9238	0.2898
-25.4863	-11.6095	-53.5854	-0.0163	1.9315	0.2628
-25.4847	-11.6098	-53.5747	-0.0226	1.9402	0.2229
-25.4834	-11.6087	-53.5661	-0.0276	1.9512	0.1916
-25.4822	-11.6085	-53.5576	-0.0326	1.9579	0.1597
-25.4808	-11.6091	-53.5482	-0.0382	1.9604	0.1231
-25.4795	-11.6086	-53.5397	-0.0432	1.9659	0.0909
-25.4783	-11.6079	-53.5313	-0.0482	1.9709	0.0584
-25.4775	-11.6080	-53.5262	-0.0512	1.9713	0.0388
-25.4761	-11.6080	-53.5168	-0.0568	1.9716	0.0019
-25.4748	-11.6079	-53.5084	-0.0617	1.9712	-0.0306
-25.4736	-11.6077	-53.5000	-0.0666	1.9702	-0.0633
-25.4723	-11.6083	-53.4916	-0.0712	1.9649	-0.0956
-25.4709	-11.6077	-53.4821	-0.0767	1.9626	-0.1323
-25.4697	-11.6080	-53.4737	-0.0813	1.9561	-0.1644
-25.4686	-11.6063	-53.4665	-0.0857	1.9572	-0.1928
-25.4672	-11.6062	-53.4570	-0.0909	1.9491	-0.2289
-25.4660	-11.6051	-53.4486	-0.0956	1.9449	-0.2610
-25.4649	-11.6050	-53.4412	-0.0995	1.9369	-0.2885
-25.4638	-11.6048	-53.4338	-0.1033	1.9286	-0.3156
-25.4623	-11.6051	-53.4241	-0.1081	1.9146	-0.3500
-25.4609	-11.6042	-53.4145	-0.1130	1.9037	-0.3850
-25.4598	-11.6036	-53.4071	-0.1167	1.8941	-0.4115
-25.4585	-11.6036	-53.3984	-0.1207	1.8795	-0.4408
-25.4574	-11.6037	-53.3907	-0.1241	1.8655	-0.4659
-25.4559	-11.6031	-53.3809	-0.1286	1.8490	-0.4988
-25.4547	-11.6030	-53.3731	-0.1318	1.8343	-0.5232
-25.4533	-11.6030	-53.3629	-0.1359	1.8135	-0.5541
-25.4519	-11.6032	-53.3537	-0.1393	1.7936	-0.5807
-25.4505	-11.6032	-53.3445	-0.1426	1.7733	-0.6068
-25.4493	-11.6034	-53.3363	-0.1453	1.7543	-0.6284
-25.4479	-11.6044	-53.3278	-0.1477	1.7319	-0.6487
-25.4464	-11.6035	-53.3173	-0.1514	1.7095	-0.6772
-25.4450	-11.6028	-53.3079	-0.1544	1.6884	-0.7015
-25.4437	-11.6019	-53.2984	-0.1573	1.6671	-0.7252
-25.4424	-11.6014	-53.2901	-0.1597	1.6472	-0.7449
-25.4408	-11.6029	-53.2793	-0.1617	1.6167	-0.7637
-25.4426	-11.5400	-53.2791	-0.1927	1.7478	-0.9445
-25.4437	-11.5009	-53.2792	-0.2165	1.8324	-1.0866
-25.4459	-11.4506	-53.2837	-0.2532	1.9612	-1.3057
-25.4463	-11.4357	-53.2833	-0.2660	1.9895	-1.3857
-25.4469	-11.4221	-53.2847	-0.2784	2.0250	-1.4612
-25.4471	-11.4104	-53.2842	-0.2898	2.0429	-1.5333
-25.4481	-11.3846	-53.2853	-0.3170	2.0921	-1.7050
-25.4484	-11.3741	-53.2852	-0.3290	2.1049	-1.7825
-25.4491	-11.3645	-53.2877	-0.3407	2.1359	-1.8544
-25.4494	-11.3541	-53.2881	-0.3537	2.1489	-1.9383
-25.4496	-11.3454	-53.2875	-0.3650	2.1490	-2.0134
-25.4498	-11.3332	-53.2865	-0.3812	2.1426	-2.1220
-25.4504	-11.3260	-53.2891	-0.3921	2.1667	-2.1901
-25.4504	-11.3149	-53.2869	-0.4073	2.1393	-2.2961
-25.4508	-11.3065	-53.2873	-0.4198	2.1354	-2.3811
-25.4513	-11.3024	-53.2903	-0.4277	2.1615	-2.4279
-25.4515	-11.2943	-53.2899	-0.4401	2.1442	-2.5139
-25.4515	-11.2838	-53.2878	-0.4553	2.0966	-2.6244
-25.4519	-11.2758	-53.2891	-0.4693	2.0885	-2.7187
-25.4524	-11.2725	-53.2916	-0.4767	2.1076	-2.7645
-25.4524	-11.2629	-53.2895	-0.4909	2.0457	-2.8703
-25.4528	-11.2562	-53.2909	-0.5033	2.0331	-2.9565
-25.4533	-11.2532	-53.2937	-0.5115	2.0519	-3.0074
-25.4534	-11.2442	-53.2926	-0.5256	1.9894	-3.1127
-25.4538	-11.2398	-53.2945	-0.5357	1.9869	-3.1802
-25.4539	-11.2316	-53.2931	-0.5477	1.9116	-3.2750
-25.4541	-11.2273	-53.2941	-0.5564	1.8925	-3.3365
-25.4542	-11.2197	-53.2933	-0.5680	1.8196	-3.4271
-25.4545	-11.2179	-53.2946	-0.5731	1.8212	-3.4609
-25.4549	-11.2138	-53.2958	-0.5819	1.7991	-3.5249
-25.4546	-11.1999	-53.2915	-0.5954	1.6015	-3.6524
-25.4551	-11.1998	-53.2947	-0.6020	1.6401	-3.6888
-25.4551	-11.1914	-53.2933	-0.6114	1.5241	-3.7734
-25.4557	-11.1938	-53.2975	-0.6170	1.6049	-3.7954
-25.4557	-11.1821	-53.2951	-0.6279	1.4247	-3.9025
-25.4561	-11.1854	-53.2984	-0.6313	1.5092	-3.9088
-25.4563	-11.1777	-53.2977	-0.6399	1.3939	-3.9888
-25.4563	-11.1722	-53.2969	-0.6446	1.3050	-4.0375
-25.4566	-11.1689	-53.2980	-0.6512	1.2652	-4.0884
-25.4566	-11.1611	-53.2967	-0.6561	1.1282	-4.1473
-25.4568	-11.1634	-53.2984	-0.6583	1.1823	-4.1518
-25.4570	-11.1534	-53.2979	-0.6660	1.0101	-4.2359
-25.4571	-11.1500	-53.2981	-0.6693	0.9525	-4.2689
-25.4574	-11.1498	-53.3001	-0.6752	0.9648	-4.3062
-25.4576	-11.1412	-53.2993	-0.6784	0.8002	-4.3599
-25.4578	-11.1426	-53.3006	-0.6815	0.8365	-4.3734
-25.4580	-11.1350	-53.3003	-0.6842	0.6881	-4.4196
-25.4581	-11.1331	-53.3010	-0.6871	0.6559	-4.4451
-25.4583	-11.1261	-53.3010	-0.6889	0.5144	-4.4845
-25.4584	-11.1225	-53.3006	-0.6880	0.4391	-4.4927
-25.4584	-11.1193	-53.3003	-0.6870	0.3733	-4.4988
-25.4586	-11.1199	-53.3014	-0.6903	0.3890	-4.5182
-25.4588	-11.1115	-53.3008	-0.6870	0.2132	-4.5304
-25.4589	-11.1112	-53.3018	-0.6900	0.2080	-4.5516
-25.4593	-11.1043	-53.3025	-0.6897	0.0613	-4.5776
-25.4594	-11.1007	-53.3025	-0.6876	-0.0155	-4.5783
-25.4594	-11.1004	-53.3025	-0.6874	-0.0217	-4.5783
-25.4596	-11.0935	-53.3026	-0.6828	-0.1694	-4.5759
-25.4597	-11.0899	-53.3027	-0.6801	-0.2461	-4.5728
-25.4601	-11.0864	-53.3039	-0.6802	-0.3242	-4.5897
-25.4602	-11.0829	-53.3042	-0.6772	-0.4015	-4.5841
-25.4603	-11.0793	-53.3045	-0.6739	-0.4783	-4.5772
-25.4604	-11.0757	-53.3039	-0.6674	-0.5523	-4.5479
-25.4605	-11.0721	-53.3043	-0.6638	-0.6289	-4.5384
-25.4607	-11.0685	-53.3048	-0.6600	-0.7049	-4.5278
-25.4608	-11.0664	-53.3052	-0.6576	-0.7509	-4.5208
-25.4609	-11.0613	-53.3050	-0.6488	-0.8527	-4.4820
-25.4612	-11.0578	-53.3057	-0.6444	-0.9276	-4.4677
-25.4613	-11.0540	-53.3054	-0.6370	-0.9977	-4.4318
-25.4614	-11.0502	-53.3053	-0.6294	-1.0673	-4.3949
-25.4616	-11.0467	-53.3061	-0.6246	-1.1408	-4.3771
-25.4618	-11.0432	-53.3070	-0.6197	-1.2139	-4.3581
-25.4620	-11.0394	-53.3071	-0.6117	-1.2813	-4.3180
-25.4621	-11.0356	-53.3072	-0.6037	-1.3473	-4.2773
-25.4623	-11.0318	-53.3073	-0.5955	-1.4123	-4.2357
-25.4623	-11.0290	-53.3072	-0.5888	-1.4577	-4.1997
-25.4626	-11.0242	-53.3078	-0.5790	-1.5395	-4.1503
-25.4626	-11.0200	-53.3072	-0.5681	-1.5945	-4.0882
-25.4623	-11.0217	-53.3056	-0.5690	-1.5476	-4.0851
-25.4625	-11.0178	-53.3060	-0.5607	-1.6087	-4.0416
-25.4627	-11.0130	-53.3068	-0.5507	-1.6866	-3.9901
-25.4634	-11.0046	-53.3094	-0.5340	-1.8317	-3.9068
-25.4637	-11.0007	-53.3101	-0.5252	-1.8886	-3.8598
-25.4638	-10.9964	-53.3100	-0.5142	-1.9361	-3.7956
-25.4636	-10.9965	-53.3088	-0.5132	-1.9165	-3.7850
-25.4641	-10.9881	-53.3109	-0.4944	-2.0358	-3.6831
-25.4636	-10.9905	-53.3074	-0.4967	-1.9591	-3.6836
-25.4639	-10.9838	-53.3087	-0.4816	-2.0434	-3.5991
-25.4639	-10.9826	-53.3083	-0.4782	-2.0474	-3.5773
-25.4650	-10.9709	-53.3129	-0.4529	-2.2120	-3.4405
-25.4646	-10.9699	-53.3100	-0.4486	-2.1745	-3.4051
-25.4653	-10.9613	-53.3131	-0.4296	-2.2789	-3.2987
-25.4651	-10.9589	-53.3112	-0.4230	-2.2633	-3.2514
-25.4647	-10.9589	-53.3088	-0.4219	-2.2282	-3.2373
-25.4651	-10.9519	-53.3100	-0.4062	-2.2830	-3.1435
-25.4654	-10.9472	-53.3109	-0.3960	-2.3171	-3.0818
-25.4653	-10.9438	-53.3097	-0.3881	-2.3145	-3.0285
-25.4658	-10.9372	-53.3110	-0.3737	-2.3573	-2.9413
-25.4658	-10.9332	-53.3103	-0.3651	-2.3602	-2.8851
-25.4657	-10.9297	-53.3093	-0.3577	-2.3565	-2.8349
-25.4659	-10.9259	-53.3099	-0.3499	-2.3735	-2.7858
-25.4667	-10.9163	-53.3130	-0.3301	-2.4318	-2.6655
-25.4662	-10.9131	-53.3091	-0.3246	-2.3863	-2.6201
-25.4666	-10.9055	-53.3106	-0.3102	-2.4125	-2.5288
-25.4666	-10.9023	-53.3095	-0.3045	-2.4016	-2.4892
-25.4673	-10.8927	-53.3120	-0.2867	-2.4325	-2.3768
-25.4670	-10.8896	-53.3094	-0.2823	-2.4029	-2.3416
-25.4671	-10.8830	-53.3090	-0.2716	-2.3962	-2.2691
-25.4675	-10.8750	-53.3102	-0.2585	-2.4036	-2.1831
-25.4678	-10.8678	-53.3107	-0.2475	-2.4006	-2.1092
-25.4683	-10.8609	-53.3125	-0.2366	-2.4092	-2.0382
-25.4681	-10.8560	-53.3106	-0.2306	-2.3830	-1.9932
-25.4684	-10.8472	-53.3102	-0.2189	-2.3644	-1.9123
-25.4691	-10.8373	-53.3130	-0.2049	-2.3690	-1.8194
-25.4693	-10.8308	-53.3132	-0.1970	-2.3558	-1.7644
-25.4692	-10.8248	-53.3112	-0.1914	-2.3246	-1.7208
-25.4697	-10.8161	-53.3129	-0.1808	-2.3164	-1.6487
-25.4700	-10.8070	-53.3136	-0.1709	-2.2978	-1.5791
-25.4701	-10.7984	-53.3120	-0.1634	-2.2629	-1.5224
-25.4709	-10.7870	-53.3147	-0.1512	-2.2486	-1.4388
-25.4711	-10.7778	-53.3143	-0.1436	-2.2186	-1.3821
-25.4713	-10.7685	-53.3140	-0.1362	-2.1895	-1.3275
-25.4717	-10.7575	-53.3150	-0.1273	-2.1614	-1.2624
-25.4720	-10.7463	-53.3142	-0.1199	-2.1235	-1.2059
-25.4726	-10.7347	-53.3165	-0.1109	-2.0996	-1.1414
-25.4729	-10.7234	-53.3163	-0.1042	-2.0641	-1.0898
-25.4738	-10.7095	-53.3192	-0.0947	-2.0342	-1.0207
-25.4742	-10.6950	-53.3192	-0.0873	-1.9898	-0.9632
-25.4746	-10.6809	-53.3186	-0.0810	-1.9455	-0.9128
-25.4750	-10.6653	-53.3188	-0.0743	-1.9012	-0.8592
-25.4763	-10.6317	-53.3207	-0.0609	-1.8134	-0.7535
-25.5674	-11.6003	-54.1060	0.1227	0.8276	0.9802
-25.5668	-11.6167	-54.1052	0.1186	0.8331	0.9542
-25.5613	-11.6153	-54.0680	0.1183	0.8957	0.9637
-25.5595	-11.6256	-54.0584	0.1153	0.9138	0.9470
-25.5567	-11.6266	-54.0395	0.1142	0.9478	0.9462
-25.5540	-11.6253	-54.0211	0.1135	0.9820	0.9483
-25.5517	-11.6246	-54.0061	0.1127	1.0110	0.9485
-25.5491	-11.6250	-53.9882	0.1112	1.0463	0.9453
-25.5464	-11.6241	-53.9699	0.1098	1.0840	0.9430
-25.5440	-11.6217	-53.9530	0.1087	1.1205	0.9428
-25.5418	-11.6220	-53.9387	0.1069	1.1514	0.9366
-25.5399	-11.6210	-53.9257	0.1055	1.1807	0.9326
-25.5374	-11.6224	-53.9094	0.1026	1.2168	0.9203
-25.5354	-11.6225	-53.8960	0.1004	1.2473	0.9113
-25.5337	-11.6215	-53.8839	0.0986	1.2762	0.9046
-25.5316	-11.6209	-53.8692	0.0958	1.3116	0.8934
-25.5294	-11.6209	-53.8551	0.0929	1.3454	0.8800
-25.5277	-11.6223	-53.8438	0.0899	1.3710	0.8647
-25.5262	-11.6219	-53.8332	0.0874	1.3970	0.8533
-25.5244	-11.6211	-53.8211	0.0846	1.4275	0.8399
-25.5226	-11.6200	-53.8091	0.0816	1.4583	0.8258
-25.5207	-11.6193	-53.7961	0.0780	1.4911	0.8081
-25.5190	-11.6186	-53.7847	0.0747	1.5199	0.7915
-25.5172	-11.6174	-53.7720	0.0709	1.5532	0.7723
-25.5156	-11.6153	-53.7604	0.0675	1.5852	0.7558
-25.5142	-11.6161	-53.7518	0.0641	1.6045	0.7370
-25.5124	-11.6182	-53.7399	0.0590	1.6282	0.7073
-25.5108	-11.6163	-53.7291	0.0553	1.6575	0.6877
-25.5093	-11.6151	-53.7187	0.0513	1.6838	0.6663
-25.5081	-11.6162	-53.7107	0.0476	1.6995	0.6445
-25.5063	-11.6173	-53.6990	0.0422	1.7220	0.6124
-25.5049	-11.6165	-53.6892	0.0379	1.7447	0.5883
-25.5037	-11.6142	-53.6803	0.0343	1.7693	0.5685
-25.5025	-11.6127	-53.6717	0.0305	1.7907	0.5472
-25.5006	-11.6143	-53.6594	0.0241	1.8097	0.5077
-25.4994	-11.6144	-53.6516	0.0201	1.8237	0.4836
-25.4981	-11.6117	-53.6419	0.0155	1.8488	0.4580
-25.4969	-11.6115	-53.6342	0.0114	1.8623	0.4331
-25.4956	-11.6124	-53.6256	0.0067	1.8728	0.4033
-25.4943	-11.6112	-53.6166	0.0019	1.8900	0.3745
-25.4929	-11.6110	-53.6068	-0.0035	1.9040	0.3407
-25.4915	-11.6097	-53.5968	-0.0091	1.9211	0.3070
-25.4902	-11.6109	-53.5885	-0.0139	1.9259	0.2755
-25.4891	-11.6099	-53.5809	-0.0182	1.9371	0.2488
-25.4877	-11.6090	-53.5713	-0.0238	1.9490	0.2136
-25.4864	-11.6089	-53.5628	-0.0287	1.9560	0.1818
-25.4852	-11.6086	-53.5544	-0.0336	1.9625	0.1500
-25.4839	-11.6101	-53.5461	-0.0385	1.9608	0.1174
-25.4830	-11.6094	-53.5399	-0.0421	1.9658	0.0939
-25.4815	-11.6088	-53.5294	-0.0483	1.9711	0.0532
-25.4802	-11.6089	-53.5210	-0.0532	1.9716	0.0207
-25.4790	-11.6089	-53.5127	-0.0580	1.9715	-0.0117
-25.4776	-11.6077	-53.5033	-0.0636	1.9747	-0.0484
-25.4766	-11.6075	-53.4961	-0.0678	1.9736	-0.0767
-25.4755	-11.6071	-53.4888	-0.0719	1.9722	-0.1050
-25.4742	-11.6075	-53.4805	-0.0765	1.9661	-0.1371
-25.4729	-11.6067	-53.4711	-0.0819	1.9630	-0.1736
-25.4717	-11.6059	-53.4627	-0.0866	1.9597	-0.2060
-25.4706	-11.6060	-53.4555	-0.0905	1.9525	-0.2334
-25.4693	-11.6069	-53.4469	-0.0948	1.9405	-0.2646
-25.4678	-11.6063	-53.4362	-0.1004	1.9305	-0.3042
-25.4668	-11.6062	-53.4300	-0.1036	1.9228	-0.3270
-25.4656	-11.6056	-53.4215	-0.1079	1.9131	-0.3579
-25.4645	-11.6052	-53.4141	-0.1116	1.9039	-0.3845
-25.4633	-11.6043	-53.4056	-0.1159	1.8934	-0.4149
-25.4619	-11.6041	-53.3959	-0.1204	1.8777	-0.4483
-25.4604	-11.6036	-53.3860	-0.1248	1.8615	-0.4815
-25.4593	-11.6036	-53.3783	-0.1281	1.8470	-0.5060
-25.4581	-11.6034	-53.3706	-0.1313	1.8323	-0.5304
-25.4566	-11.6034	-53.3604	-0.1353	1.8114	-0.5612
-25.4553	-11.6035	-53.3512	-0.1387	1.7913	-0.5877
-25.4538	-11.6044	-53.3416	-0.1417	1.7677	-0.6126
-25.4527	-11.6036	-53.3338	-0.1446	1.7519	-0.6354
-25.4515	-11.6028	-53.3259	-0.1476	1.7358	-0.6580
-25.4500	-11.6027	-53.3151	-0.1509	1.7101	-0.6852
-25.4484	-11.6039	-53.3050	-0.1533	1.6827	-0.7067
-25.4471	-11.6029	-53.2955	-0.1562	1.6613	-0.7304
-25.4460	-11.6005	-53.2880	-0.1591	1.6473	-0.7528
-25.4447	-11.5961	-53.2787	-0.1633	1.6326	-0.7834
-25.4498	-11.4468	-53.2833	-0.2543	1.9722	-1.3300
-25.4501	-11.4334	-53.2832	-0.2661	1.9989	-1.4037
-25.4508	-11.4198	-53.2847	-0.2785	2.0350	-1.4800
-25.4508	-11.4071	-53.2829	-0.2910	2.0462	-1.5621
-25.4513	-11.3948	-53.2834	-0.3037	2.0694	-1.6427
-25.4521	-11.3842	-53.2862	-0.3151	2.1048	-1.7134
-25.4523	-11.3719	-53.2855	-0.3292	2.1159	-1.8058
-25.4526	-11.3628	-53.2857	-0.3402	2.1269	-1.8772
-25.4528	-11.3510	-53.2846	-0.3548	2.1264	-1.9754
-25.4533	-11.3436	-53.2869	-0.3648	2.1501	-2.0383
-25.4537	-11.3347	-53.2878	-0.3770	2.1604	-2.1179
-25.4540	-11.3244	-53.2875	-0.3912	2.1560	-2.2144
-25.4541	-11.3145	-53.2863	-0.4051	2.1384	-2.3111
-25.4547	-11.3086	-53.2891	-0.4149	2.1609	-2.3731
-25.4549	-11.3005	-53.2885	-0.4270	2.1443	-2.4577
-25.4552	-11.2918	-53.2890	-0.4408	2.1334	-2.5525
-25.4556	-11.2863	-53.2909	-0.4508	2.1429	-2.6178
-25.4558	-11.2779	-53.2906	-0.4642	2.1169	-2.7129
-25.4561	-11.2716	-53.2909	-0.4747	2.0996	-2.7865
-25.4562	-11.2624	-53.2904	-0.4895	2.0570	-2.8941
-25.4566	-11.2568	-53.2913	-0.4998	2.0433	-2.9662
-25.4567	-11.2484	-53.2905	-0.5130	1.9885	-3.0658
-25.4573	-11.2469	-53.2943	-0.5200	2.0277	-3.1057
-25.4574	-11.2366	-53.2926	-0.5354	1.9408	-3.2255
-25.4577	-11.2338	-53.2943	-0.5427	1.9441	-3.2740
-25.4579	-11.2280	-53.2945	-0.5526	1.9031	-3.3486
-25.4578	-11.2160	-53.2915	-0.5674	1.7613	-3.4751
-25.4582	-11.2182	-53.2948	-0.5696	1.8240	-3.4779
-25.4584	-11.2116	-53.2948	-0.5803	1.7625	-3.5617
-25.4583	-11.2006	-53.2920	-0.5916	1.6111	-3.6668
-25.4588	-11.1986	-53.2943	-0.5993	1.6173	-3.7178
-25.4590	-11.1956	-53.2952	-0.6056	1.5920	-3.7649
-25.4593	-11.1935	-53.2965	-0.6114	1.5828	-3.8055
-25.4594	-11.1862	-53.2957	-0.6200	1.4796	-3.8834
-25.4596	-11.1813	-53.2960	-0.6272	1.4170	-3.9438
-25.4598	-11.1803	-53.2977	-0.6327	1.4233	-3.9795
-25.4600	-11.1716	-53.2969	-0.6413	1.2870	-4.0634
-25.4601	-11.1710	-53.2978	-0.6442	1.2867	-4.0829
-25.4604	-11.1610	-53.2969	-0.6523	1.1178	-4.1706
-25.4605	-11.1633	-53.2986	-0.6545	1.1722	-4.1754
-25.4606	-11.1531	-53.2970	-0.6592	0.9850	-4.2428
-25.4609	-11.1490	-53.2981	-0.6654	0.9210	-4.2967
-25.4610	-11.1514	-53.2997	-0.6682	0.9761	-4.3047
-25.4612	-11.1413	-53.2986	-0.6715	0.7820	-4.3642
-25.4613	-11.1374	-53.2990	-0.6743	0.7115	-4.3965
-25.4615	-11.1336	-53.2994	-0.6769	0.6401	-4.4279
-25.4617	-11.1299	-53.2999	-0.6794	0.5679	-4.4584
-25.4619	-11.1262	-53.3004	-0.6816	0.4954	-4.4878
-25.4619	-11.1273	-53.3005	-0.6818	0.5189	-4.4851
-25.4620	-11.1208	-53.2999	-0.6800	0.3843	-4.4989
-25.4623	-11.1152	-53.3004	-0.6812	0.2699	-4.5283
-25.4625	-11.1116	-53.3012	-0.6827	0.1948	-4.5533
-25.4626	-11.1080	-53.3011	-0.6810	0.1185	-4.5562
-25.4628	-11.1044	-53.3020	-0.6822	0.0423	-4.5789
-25.4629	-11.1008	-53.3020	-0.6801	-0.0349	-4.5793
-25.4630	-11.1010	-53.3020	-0.6800	-0.0309	-4.5793
-25.4632	-11.0937	-53.3021	-0.6751	-0.1883	-4.5763
-25.4633	-11.0901	-53.3023	-0.6724	-0.2650	-4.5729
-25.4635	-11.0884	-53.3034	-0.6742	-0.3031	-4.5921
-25.4638	-11.0830	-53.3038	-0.6695	-0.4205	-4.5835
-25.4639	-11.0795	-53.3041	-0.6663	-0.4972	-4.5763
-25.4639	-11.0758	-53.3035	-0.6598	-0.5711	-4.5466
-25.4641	-11.0722	-53.3040	-0.6561	-0.6477	-4.5369
-25.4644	-11.0687	-53.3045	-0.6522	-0.7235	-4.5260
-25.4645	-11.0652	-53.3050	-0.6482	-0.7992	-4.5138
-25.4644	-11.0652	-53.3040	-0.6455	-0.7916	-4.4937
-25.4647	-11.0598	-53.3050	-0.6391	-0.9067	-4.4728
-25.4646	-11.0584	-53.3043	-0.6347	-0.9279	-4.4473
-25.4648	-11.0528	-53.3045	-0.6250	-1.0365	-4.4029
-25.4649	-11.0515	-53.3047	-0.6234	-1.0621	-4.3970
-25.4653	-11.0431	-53.3059	-0.6094	-1.2263	-4.3343
-25.4652	-11.0438	-53.3057	-0.6103	-1.2129	-4.3379
-25.4653	-11.0414	-53.3053	-0.6044	-1.2511	-4.3063
-25.4659	-11.0320	-53.3071	-0.5881	-1.4293	-4.2310
-25.4660	-11.0282	-53.3073	-0.5799	-1.4936	-4.1883
-25.4659	-11.0276	-53.3065	-0.5769	-1.4922	-4.1678
-25.4663	-11.0206	-53.3080	-0.5634	-1.6185	-4.1008
-25.4664	-11.0163	-53.3075	-0.5525	-1.6720	-4.0380
-25.4666	-11.0125	-53.3081	-0.5441	-1.7317	-3.9927
-25.4663	-11.0132	-53.3067	-0.5436	-1.7030	-3.9841
-25.4664	-11.0112	-53.3065	-0.5383	-1.7269	-3.9537
-25.4672	-11.0004	-53.3091	-0.5160	-1.8965	-3.8361
-25.4670	-11.0006	-53.3079	-0.5149	-1.8766	-3.8253
-25.4676	-10.9926	-53.3108	-0.4986	-2.0065	-3.7401
-25.4670	-10.9956	-53.3071	-0.5016	-1.9204	-3.7437
-25.4672	-10.9907	-53.3074	-0.4900	-1.9742	-3.6765
-25.4675	-10.9849	-53.3082	-0.4768	-2.0422	-3.6005
-25.4676	-10.9809	-53.3082	-0.4671	-2.0769	-3.5417
-25.4675	-10.9782	-53.3074	-0.4601	-2.0876	-3.4967
-25.4678	-10.9737	-53.3078	-0.4495	-2.1283	-3.4341
-25.4679	-10.9697	-53.3080	-0.4400	-2.1603	-3.3762
-25.4682	-10.9632	-53.3086	-0.4252	-2.2116	-3.2865
-25.4682	-10.9594	-53.3075	-0.4160	-2.2183	-3.2259
-25.4684	-10.9548	-53.3082	-0.4059	-2.2541	-3.1643
-25.4691	-10.9455	-53.3113	-0.3859	-2.3408	-3.0462
-25.4688	-10.9449	-53.3092	-0.3842	-2.3135	-3.0299
-25.4691	-10.9388	-53.3102	-0.3710	-2.3497	-2.9477
-25.4690	-10.9351	-53.3080	-0.3630	-2.3311	-2.8908
-25.4700	-10.9259	-53.3130	-0.3438	-2.4232	-2.7798
-25.4700	-10.9234	-53.3125	-0.3389	-2.4211	-2.7459
-25.4700	-10.9172	-53.3113	-0.3266	-2.4162	-2.6624
-25.4700	-10.9108	-53.3103	-0.3147	-2.4110	-2.5813
-25.4705	-10.9045	-53.3122	-0.3025	-2.4388	-2.5044
-25.4700	-10.9012	-53.3084	-0.2977	-2.3946	-2.4633
-25.4703	-10.8949	-53.3090	-0.2867	-2.4023	-2.3908
-25.4710	-10.8857	-53.3112	-0.2704	-2.4263	-2.2860
-25.4713	-10.8794	-53.3121	-0.2599	-2.4315	-2.2164
-25.4709	-10.8759	-53.3086	-0.2560	-2.3902	-2.1824
-25.4714	-10.8673	-53.3105	-0.2425	-2.4013	-2.0934
-25.4719	-10.8593	-53.3122	-0.2301	-2.4063	-2.0113
-25.4719	-10.8534	-53.3115	-0.2225	-2.3890	-1.9566
-25.4720	-10.8462	-53.3107	-0.2136	-2.3688	-1.8926
-25.4722	-10.8385	-53.3107	-0.2041	-2.3530	-1.8255
-25.4725	-10.8320	-53.3109	-0.1963	-2.3404	-1.7705
-25.4730	-10.8234	-53.3125	-0.1855	-2.3322	-1.6969
-25.4736	-10.8135	-53.3143	-0.1738	-2.3204	-1.6157
-25.4736	-10.8057	-53.3132	-0.1666	-2.2912	-1.5616
-25.4739	-10.7970	-53.3136	-0.1580	-2.2694	-1.4998
-25.4742	-10.7865	-53.3131	-0.1490	-2.2360	-1.4323
-25.4746	-10.7764	-53.3141	-0.1399	-2.2124	-1.3665
-25.4748	-10.7671	-53.3140	-0.1326	-2.1836	-1.3122
-25.4754	-10.7555	-53.3157	-0.1231	-2.1584	-1.2430
-25.4758	-10.7431	-53.3153	-0.1148	-2.1180	-1.1799
-25.4765	-10.7324	-53.3182	-0.1063	-2.0990	-1.1188
-25.4768	-10.7202	-53.3177	-0.0995	-2.0587	-1.0654
-25.4772	-10.7067	-53.3178	-0.0922	-2.0177	-1.0080
-25.4781	-10.6776	-53.3182	-0.0782	-1.9326	-0.8974
-25.4793	-10.6450	-53.3199	-0.0646	-1.8454	-0.7891
-25.4807	-10.6085	-53.3219	-0.0520	-1.7528	-0.6868
-25.5703	-11.6072	-54.1102	0.1200	0.8220	0.9700
-25.5687	-11.6164	-54.1011	0.1177	0.8392	0.9577
-25.5666	-11.6240	-54.0879	0.1155	0.8627	0.9481
