-25.3639	-11.5939	-53.3728	0.1247	0.5680	-0.0314
-25.3963	-11.6070	-53.3728	0.1325	0.5594	-0.0307
-25.4253	-11.6051	-53.3737	0.1414	0.5556	-0.0302
-25.4523	-11.5950	-53.3751	0.1508	0.5541	-0.0299
-25.4829	-11.5968	-53.3758	0.1590	0.5484	-0.0293
-25.5137	-11.5991	-53.3765	0.1670	0.5423	-0.0287
-25.5468	-11.6065	-53.3769	0.1743	0.5343	-0.0280
-25.5775	-11.6058	-53.3778	0.1822	0.5287	-0.0275
-25.5981	-11.5763	-53.3803	0.1932	0.5319	-0.0274
-25.6216	-11.5559	-53.3822	0.2032	0.5320	-0.0271
-25.7266	-11.5789	-53.3836	0.2217	0.5038	-0.0249
-25.7518	-11.5621	-53.3853	0.2306	0.5015	-0.0245
-25.7969	-11.5873	-53.3850	0.2334	0.4863	-0.0235
-25.9843	-11.6138	-53.3886	0.2564	0.4398	-0.0200
-26.0335	-11.6323	-53.3888	0.2583	0.4265	-0.0191
-26.0734	-11.6336	-53.3898	0.2624	0.4177	-0.0185
-26.1010	-11.6149	-53.3917	0.2694	0.4135	-0.0180
-26.1582	-11.5800	-53.3955	0.2825	0.4038	-0.0171
-26.2043	-11.5865	-53.3963	0.2846	0.3929	-0.0163
-26.2533	-11.5952	-53.3971	0.2861	0.3815	-0.0156
-26.2729	-11.5640	-53.3996	0.2942	0.3791	-0.0152
-26.3013	-11.5442	-53.4015	0.3002	0.3738	-0.0147
-26.5950	-11.6106	-53.4056	0.2950	0.3121	-0.0111
-26.6438	-11.6054	-53.4072	0.2963	0.3033	-0.0105
-26.6709	-11.5700	-53.4101	0.3027	0.2984	-0.0100
-26.8561	-11.6426	-53.4107	0.2892	0.2680	-0.0085
-26.8971	-11.6230	-53.4132	0.2916	0.2614	-0.0081
-26.9568	-11.6188	-53.4151	0.2911	0.2524	-0.0075
-27.0269	-11.6215	-53.4168	0.2891	0.2424	-0.0070
-27.0602	-11.5921	-53.4195	0.2923	0.2370	-0.0066
-27.2086	-11.5941	-53.4235	0.2873	0.2175	-0.0055
-27.2659	-11.5792	-53.4259	0.2870	0.2099	-0.0050
-27.4812	-11.6213	-53.4294	0.2739	0.1876	-0.0040
-27.5433	-11.6026	-53.4322	0.2732	0.1806	-0.0036
-28.8948	-11.5868	-53.4703	0.2168	0.0928	0.0002
-28.9850	-11.4717	-53.4798	0.2177	0.0848	0.0008
-29.5360	-11.5154	-53.4924	0.1960	0.0689	0.0011
-29.8181	-11.4372	-53.5049	0.1887	0.0594	0.0015
-31.8303	-11.3615	-53.5648	0.1401	0.0296	0.0020
-32.7050	-11.0203	-53.6097	0.1271	0.0182	0.0024
-32.8400	-10.9074	-53.6203	0.1255	0.0158	0.0025
-33.4226	-10.6993	-53.6494	0.1176	0.0109	0.0026
-23.7441	-11.4891	-53.3368	-0.3093	0.3874	-0.0325
-23.7732	-11.5056	-53.3366	-0.3036	0.3934	-0.0327
-23.9638	-11.4668	-53.3444	-0.2971	0.4449	-0.0357
-24.0293	-11.4780	-53.3456	-0.2862	0.4609	-0.0363
-24.0628	-11.4809	-53.3464	-0.2808	0.4694	-0.0367
-24.5980	-10.6663	-53.4115	-0.5538	1.0365	-0.0792
-24.6153	-10.6675	-53.4119	-0.5388	1.0554	-0.0799
-24.3601	-11.4685	-53.3557	-0.2260	0.5496	-0.0400
-24.4019	-11.5149	-53.3541	-0.2043	0.5476	-0.0393
-24.6133	-11.3937	-53.3676	-0.1647	0.6324	-0.0434
-24.8280	-11.3372	-53.3772	-0.0827	0.6925	-0.0447
-24.9593	-11.5746	-53.3665	-0.0138	0.6015	-0.0372
-25.0148	-11.5940	-53.3670	0.0062	0.5948	-0.0362
-25.0425	-11.5836	-53.3684	0.0162	0.5982	-0.0361
-25.0731	-11.5675	-53.3702	0.0277	0.6032	-0.0361
-25.0991	-11.5422	-53.3725	0.0384	0.6116	-0.0363
-25.1523	-11.5280	-53.3750	0.0591	0.6138	-0.0358
-25.1784	-11.5183	-53.3763	0.0697	0.6154	-0.0356
-25.2025	-11.4953	-53.3784	0.0810	0.6219	-0.0357
-25.2274	-11.4819	-53.3800	0.0919	0.6244	-0.0355
-25.3548	-11.5920	-53.3770	0.1218	0.5701	-0.0313
-25.3850	-11.5966	-53.3776	0.1304	0.5644	-0.0307
-25.4151	-11.5997	-53.3783	0.1389	0.5589	-0.0302
-25.4430	-11.5936	-53.3794	0.1480	0.5562	-0.0297
-25.4733	-11.5957	-53.3802	0.1563	0.5506	-0.0292
-25.5041	-11.5982	-53.3809	0.1643	0.5445	-0.0286
-25.5360	-11.6030	-53.3815	0.1719	0.5375	-0.0279
-25.5645	-11.5958	-53.3828	0.1806	0.5339	-0.0274
-25.5914	-11.5844	-53.3843	0.1896	0.5315	-0.0270
-25.6195	-11.5763	-53.3856	0.1981	0.5277	-0.0266
-25.6808	-11.5716	-53.3877	0.2133	0.5157	-0.0254
-25.7224	-11.5931	-53.3876	0.2174	0.5020	-0.0244
-25.9734	-11.6161	-53.3935	0.2543	0.4422	-0.0197
-26.0182	-11.6281	-53.3941	0.2573	0.4307	-0.0189
-26.0531	-11.6222	-53.3954	0.2626	0.4236	-0.0183
-26.0791	-11.6011	-53.3975	0.2701	0.4201	-0.0179
-26.1402	-11.5737	-53.4010	0.2823	0.4087	-0.0168
-26.1842	-11.5783	-53.4020	0.2849	0.3983	-0.0161
-26.2298	-11.5835	-53.4030	0.2871	0.3877	-0.0154
-26.2638	-11.5718	-53.4047	0.2919	0.3809	-0.0149
-26.2861	-11.5443	-53.4070	0.2993	0.3774	-0.0144
-26.3355	-11.5508	-53.4080	0.3003	0.3661	-0.0137
-26.3901	-11.5613	-53.4090	0.3002	0.3539	-0.0130
-26.5394	-11.6274	-53.4093	0.2910	0.3224	-0.0113
-26.6549	-11.6374	-53.4121	0.2907	0.3013	-0.0100
-26.6946	-11.6209	-53.4142	0.2937	0.2945	-0.0095
-26.7477	-11.6170	-53.4160	0.2942	0.2854	-0.0090
-26.8787	-11.6266	-53.4193	0.2914	0.2644	-0.0077
-26.9368	-11.6216	-53.4213	0.2911	0.2556	-0.0072
-26.9716	-11.5951	-53.4239	0.2943	0.2498	-0.0068
-27.0865	-11.5766	-53.4284	0.2937	0.2330	-0.0058
-27.2602	-11.5950	-53.4323	0.2853	0.2113	-0.0047
-27.4565	-11.6250	-53.4363	0.2745	0.1904	-0.0037
-27.5310	-11.6153	-53.4390	0.2725	0.1824	-0.0033
-27.6083	-11.6051	-53.4419	0.2703	0.1745	-0.0028
-28.1828	-11.6200	-53.4576	0.2443	0.1304	-0.0009
-28.1954	-11.5594	-53.4619	0.2476	0.1270	-0.0006
-28.8838	-11.6070	-53.4789	0.2165	0.0940	0.0005
-28.9075	-11.5409	-53.4836	0.2182	0.0905	0.0008
-28.9488	-11.4815	-53.4885	0.2189	0.0865	0.0011
-29.0452	-11.4426	-53.4936	0.2164	0.0814	0.0013
-29.7403	-11.5267	-53.5089	0.1891	0.0641	0.0016
-29.8470	-11.4744	-53.5152	0.1870	0.0600	0.0018
-32.6461	-11.1853	-53.6144	0.1272	0.0211	0.0024
-32.7479	-11.0707	-53.6244	0.1262	0.0187	0.0025
-32.8667	-10.9562	-53.6348	0.1249	0.0165	0.0026
-23.8315	-11.4680	-53.3421	-0.3090	0.4102	-0.0344
-23.9782	-11.4855	-53.3456	-0.2907	0.4464	-0.0361
-24.0171	-11.4820	-53.3470	-0.2869	0.4570	-0.0366
-24.0539	-11.4800	-53.3482	-0.2825	0.4670	-0.0371
-24.5946	-10.6656	-53.4144	-0.5582	1.0325	-0.0800
-24.3566	-11.4574	-53.3588	-0.2299	0.5514	-0.0407
-24.3692	-11.5002	-53.3566	-0.2163	0.5437	-0.0398
-24.3903	-11.5244	-53.3558	-0.2054	0.5425	-0.0394
-24.8941	-11.5811	-53.3679	-0.0373	0.5972	-0.0376
-25.0367	-11.5931	-53.3715	0.0138	0.5951	-0.0359
-25.0642	-11.5853	-53.3729	0.0238	0.5973	-0.0358
-25.0913	-11.5721	-53.3745	0.0340	0.6011	-0.0357
-25.1424	-11.5635	-53.3766	0.0529	0.6016	-0.0351
-25.2865	-11.5913	-53.3794	0.1000	0.5791	-0.0323
-25.3154	-11.5913	-53.3803	0.1093	0.5757	-0.0318
-25.3424	-11.5819	-53.3817	0.1192	0.5752	-0.0315
-25.3735	-11.5916	-53.3821	0.1275	0.5678	-0.0308
-25.4067	-11.6075	-53.3821	0.1352	0.5581	-0.0299
-25.4354	-11.6024	-53.3833	0.1443	0.5552	-0.0295
-25.4632	-11.5950	-53.3846	0.1535	0.5527	-0.0291
-25.4941	-11.5977	-53.3855	0.1616	0.5467	-0.0284
-25.5256	-11.6017	-53.3862	0.1694	0.5399	-0.0278
-25.5571	-11.6042	-53.3870	0.1771	0.5335	-0.0271
-25.5871	-11.6014	-53.3881	0.1851	0.5284	-0.0266
-25.6070	-11.5699	-53.3906	0.1964	0.5322	-0.0265
-25.6792	-11.5935	-53.3914	0.2082	0.5115	-0.0249
-25.7367	-11.5757	-53.3944	0.2242	0.5027	-0.0238
-25.9578	-11.6017	-53.3996	0.2555	0.4478	-0.0195
-25.9931	-11.6067	-53.4004	0.2590	0.4392	-0.0189
-26.0411	-11.6234	-53.4009	0.2610	0.4264	-0.0180
-26.0766	-11.6179	-53.4024	0.2662	0.4191	-0.0174
-26.0942	-11.5840	-53.4050	0.2757	0.4186	-0.0171
-26.2212	-11.5909	-53.4085	0.2849	0.3893	-0.0150
-26.2572	-11.5816	-53.4101	0.2894	0.3819	-0.0144
-26.2727	-11.5457	-53.4129	0.2983	0.3806	-0.0141
-26.6103	-11.6106	-53.4194	0.2952	0.3096	-0.0098
-26.7522	-11.6421	-53.4220	0.2901	0.2849	-0.0084
-26.8054	-11.6361	-53.4240	0.2908	0.2762	-0.0079
-26.8586	-11.6290	-53.4260	0.2914	0.2677	-0.0074
-26.9158	-11.6239	-53.4281	0.2913	0.2588	-0.0068
-26.9719	-11.6161	-53.4303	0.2913	0.2504	-0.0063
-27.0212	-11.6011	-53.4328	0.2923	0.2429	-0.0058
-27.0714	-11.5856	-53.4353	0.2930	0.2354	-0.0053
-27.2248	-11.5903	-53.4399	0.2873	0.2155	-0.0043
-27.4333	-11.6318	-53.4438	0.2748	0.1932	-0.0033
-27.5110	-11.6249	-53.4466	0.2725	0.1849	-0.0029
-27.5723	-11.6050	-53.4497	0.2719	0.1780	-0.0025
-28.1101	-11.6070	-53.4664	0.2483	0.1346	-0.0005
-28.8120	-11.6056	-53.4882	0.2193	0.0970	0.0009
-28.8643	-11.5528	-53.4933	0.2195	0.0927	0.0011
-28.9670	-11.5188	-53.4985	0.2168	0.0873	0.0014
-29.0731	-11.4837	-53.5040	0.2139	0.0821	0.0016
-29.7879	-11.4901	-53.5257	0.1885	0.0618	0.0021
-29.8122	-11.4103	-53.5313	0.1895	0.0587	0.0023
-30.8065	-11.3047	-53.5689	0.1629	0.0388	0.0027
-32.7765	-11.1248	-53.6414	0.1255	0.0194	0.0027
-32.7862	-10.9954	-53.6496	0.1259	0.0174	0.0028
-23.7592	-11.4902	-53.3399	-0.3083	0.3906	-0.0338
-23.8013	-11.4963	-53.3409	-0.3041	0.4005	-0.0343
-23.9183	-11.4448	-53.3479	-0.3079	0.4346	-0.0365
-23.9482	-11.4558	-53.3481	-0.3020	0.4415	-0.0367
-23.9770	-11.4679	-53.3483	-0.2956	0.4479	-0.0369
-24.0043	-11.4821	-53.3484	-0.2886	0.4535	-0.0370
-24.0407	-11.4813	-53.3496	-0.2841	0.4632	-0.0375
-24.5891	-10.6660	-53.4172	-0.5627	1.0253	-0.0808
-24.2964	-11.4331	-53.3609	-0.2511	0.5412	-0.0412
-24.3227	-11.4418	-53.3612	-0.2426	0.5463	-0.0412
-24.3553	-11.4450	-53.3621	-0.2337	0.5541	-0.0414
-24.3742	-11.4711	-53.3611	-0.2223	0.5522	-0.0409
-24.3835	-11.5134	-53.3588	-0.2098	0.5437	-0.0400
-24.7720	-11.4107	-53.3778	-0.0992	0.6529	-0.0431
-24.8465	-11.4253	-53.3794	-0.0662	0.6549	-0.0421
-24.9096	-11.6034	-53.3706	-0.0312	0.5901	-0.0370
-24.9374	-11.6147	-53.3708	-0.0212	0.5871	-0.0365
-25.0497	-11.5833	-53.3764	0.0184	0.5985	-0.0359
-25.0772	-11.5723	-53.3780	0.0286	0.6018	-0.0358
-25.3092	-11.6163	-53.3830	0.1041	0.5687	-0.0313
-25.3662	-11.5897	-53.3864	0.1254	0.5697	-0.0307
-25.3938	-11.5989	-53.3868	0.1325	0.5629	-0.0300
-25.4252	-11.6057	-53.3875	0.1407	0.5561	-0.0294
-25.4527	-11.5964	-53.3889	0.1502	0.5543	-0.0289
-25.4831	-11.5973	-53.3899	0.1586	0.5489	-0.0283
-25.5143	-11.5996	-53.3908	0.1667	0.5428	-0.0277
-25.5457	-11.6013	-53.3917	0.1746	0.5366	-0.0271
-25.5727	-11.5891	-53.3933	0.1839	0.5346	-0.0266
-25.6015	-11.5822	-53.3947	0.1924	0.5305	-0.0261
-25.6293	-11.5730	-53.3961	0.2011	0.5270	-0.0256
-25.6565	-11.5625	-53.3978	0.2098	0.5236	-0.0251
-25.7662	-11.6015	-53.3990	0.2243	0.4913	-0.0227
-25.8385	-11.6004	-53.4014	0.2376	0.4754	-0.0213
-25.8789	-11.6202	-53.4015	0.2398	0.4631	-0.0204
-25.9502	-11.6183	-53.4041	0.2508	0.4475	-0.0191
-25.9903	-11.6231	-53.4051	0.2550	0.4379	-0.0184
-26.0265	-11.6203	-53.4065	0.2601	0.4302	-0.0177
-26.0592	-11.6108	-53.4081	0.2659	0.4239	-0.0172
-26.1570	-11.5786	-53.4133	0.2828	0.4049	-0.0155
-26.2042	-11.5868	-53.4143	0.2847	0.3935	-0.0147
-26.2375	-11.5748	-53.4163	0.2897	0.3869	-0.0141
-26.2696	-11.5606	-53.4182	0.2949	0.3806	-0.0136
-26.2939	-11.5363	-53.4205	0.3017	0.3765	-0.0131
-26.4194	-11.5779	-53.4220	0.2979	0.3476	-0.0115
-26.7980	-11.6493	-53.4303	0.2888	0.2776	-0.0075
-26.8438	-11.6359	-53.4326	0.2906	0.2702	-0.0070
-26.8912	-11.6227	-53.4349	0.2920	0.2627	-0.0065
-26.9408	-11.6104	-53.4373	0.2929	0.2549	-0.0059
-27.1364	-11.6016	-53.4444	0.2889	0.2273	-0.0044
-27.2109	-11.6018	-53.4469	0.2865	0.2177	-0.0039
-27.2680	-11.5940	-53.4492	0.2854	0.2105	-0.0035
-27.4861	-11.6308	-53.4541	0.2729	0.1877	-0.0025
-27.5475	-11.6115	-53.4573	0.2724	0.1808	-0.0021
-27.6241	-11.6001	-53.4606	0.2702	0.1729	-0.0017
-28.0661	-11.6077	-53.4748	0.2503	0.1377	-0.0002
-28.1139	-11.5674	-53.4788	0.2509	0.1326	0.0002
-28.8502	-11.5749	-53.5028	0.2192	0.0942	0.0015
-28.8698	-11.5075	-53.5076	0.2211	0.0907	0.0017
-29.3613	-11.4609	-53.5266	0.2038	0.0720	0.0023
-29.6721	-11.3982	-53.5407	0.1945	0.0615	0.0027
-30.2074	-11.3797	-53.5598	0.1780	0.0499	0.0028
-32.8535	-11.0503	-53.6675	0.1247	0.0179	0.0030
-23.7553	-11.4768	-53.3421	-0.3119	0.3902	-0.0345
-23.8960	-11.4508	-53.3485	-0.3085	0.4280	-0.0367
-23.9243	-11.4720	-53.3482	-0.3002	0.4334	-0.0367
-23.9607	-11.4738	-53.3493	-0.2960	0.4428	-0.0372
-24.0317	-11.4769	-53.3516	-0.2867	0.4612	-0.0380
-24.0683	-11.4747	-53.3530	-0.2822	0.4713	-0.0384
-24.2644	-11.4157	-53.3634	-0.2635	0.5361	-0.0417
-24.2838	-11.4394	-53.3627	-0.2525	0.5362	-0.0414
-24.3156	-11.4453	-53.3634	-0.2436	0.5435	-0.0415
-24.3480	-11.4399	-53.3649	-0.2371	0.5534	-0.0419
-24.3662	-11.4584	-53.3644	-0.2278	0.5534	-0.0416
-24.3893	-11.4848	-53.3635	-0.2153	0.5523	-0.0411
-24.4333	-11.5161	-53.3631	-0.1965	0.5541	-0.0405
-24.5976	-11.3581	-53.3785	-0.1794	0.6423	-0.0453
-24.6199	-11.3703	-53.3786	-0.1681	0.6426	-0.0449
-25.0115	-11.5885	-53.3790	0.0044	0.5973	-0.0362
-25.0427	-11.5820	-53.3805	0.0157	0.5993	-0.0359
-25.0700	-11.5711	-53.3821	0.0259	0.6026	-0.0358
-25.0972	-11.5668	-53.3833	0.0359	0.6032	-0.0355
-25.1228	-11.5421	-53.3858	0.0466	0.6111	-0.0356
-25.1497	-11.5399	-53.3869	0.0567	0.6102	-0.0352
-25.2205	-11.4624	-53.3940	0.0910	0.6336	-0.0354
-25.3221	-11.5973	-53.3893	0.1104	0.5734	-0.0311
-25.3511	-11.5977	-53.3904	0.1195	0.5695	-0.0305
-25.3815	-11.6024	-53.3912	0.1282	0.5639	-0.0299
-25.4108	-11.6017	-53.3923	0.1371	0.5598	-0.0293
-25.4391	-11.5966	-53.3936	0.1462	0.5568	-0.0288
-25.4696	-11.5988	-53.3945	0.1545	0.5511	-0.0282
-25.5004	-11.6004	-53.3955	0.1627	0.5454	-0.0275
-25.5321	-11.6043	-53.3963	0.1705	0.5386	-0.0269
-25.5613	-11.5990	-53.3976	0.1790	0.5345	-0.0263
-25.5880	-11.5868	-53.3995	0.1882	0.5324	-0.0259
-25.6186	-11.5843	-53.4007	0.1961	0.5269	-0.0252
-25.6537	-11.5934	-53.4013	0.2025	0.5174	-0.0245
-25.6901	-11.6036	-53.4020	0.2084	0.5075	-0.0236
-25.7243	-11.6067	-53.4030	0.2149	0.4996	-0.0229
-25.7568	-11.6044	-53.4042	0.2218	0.4931	-0.0223
-25.9696	-11.6072	-53.4116	0.2560	0.4449	-0.0182
-26.0075	-11.6163	-53.4124	0.2588	0.4352	-0.0175
-26.0518	-11.6258	-53.4134	0.2618	0.4242	-0.0167
-26.0869	-11.6191	-53.4150	0.2671	0.4171	-0.0161
-26.1254	-11.6168	-53.4166	0.2714	0.4088	-0.0154
-26.1653	-11.6152	-53.4181	0.2753	0.4001	-0.0147
-26.1908	-11.5926	-53.4204	0.2824	0.3963	-0.0143
-26.2284	-11.5864	-53.4221	0.2866	0.3884	-0.0136
-26.2626	-11.5746	-53.4240	0.2914	0.3816	-0.0131
-26.2824	-11.5441	-53.4265	0.2995	0.3789	-0.0126
-26.4078	-11.5863	-53.4283	0.2958	0.3498	-0.0110
-26.4470	-11.5763	-53.4305	0.2991	0.3421	-0.0104
-26.5612	-11.5919	-53.4335	0.2984	0.3192	-0.0090
-26.6770	-11.6081	-53.4365	0.2962	0.2979	-0.0078
-26.8207	-11.6355	-53.4399	0.2910	0.2739	-0.0065
-26.8754	-11.6294	-53.4424	0.2913	0.2653	-0.0060
-26.9380	-11.6286	-53.4446	0.2904	0.2558	-0.0054
-26.9668	-11.5969	-53.4475	0.2944	0.2509	-0.0050
-27.1057	-11.5982	-53.4523	0.2905	0.2313	-0.0039
-27.1673	-11.5894	-53.4550	0.2896	0.2229	-0.0034
-27.3849	-11.6422	-53.4594	0.2756	0.1989	-0.0025
-27.4598	-11.6351	-53.4626	0.2736	0.1906	-0.0020
-27.5335	-11.6249	-53.4658	0.2717	0.1827	-0.0016
-27.5899	-11.6012	-53.4692	0.2717	0.1762	-0.0012
-27.9460	-11.6307	-53.4799	0.2539	0.1473	-0.0001
-28.6028	-11.6406	-53.5025	0.2260	0.1079	0.0014
-28.8308	-11.5961	-53.5132	0.2191	0.0958	0.0018
-28.8765	-11.5402	-53.5182	0.2196	0.0917	0.0021
-29.0151	-11.5205	-53.5243	0.2149	0.0856	0.0023
-29.6789	-11.4348	-53.5530	0.1934	0.0626	0.0030
-31.9433	-11.3231	-53.6396	0.1383	0.0279	0.0032
-32.7373	-11.0872	-53.6818	0.1263	0.0190	0.0033
-23.8660	-11.4712	-53.3492	-0.3059	0.4183	-0.0364
-23.9086	-11.4735	-53.3506	-0.3016	0.4291	-0.0369
-23.9450	-11.4756	-53.3518	-0.2974	0.4384	-0.0373
-24.0243	-11.4667	-53.3553	-0.2906	0.4605	-0.0384
-24.0567	-11.4715	-53.3562	-0.2850	0.4685	-0.0387
-24.2298	-11.3489	-53.3699	-0.2912	0.5400	-0.0432
-24.2371	-11.3855	-53.3680	-0.2784	0.5346	-0.0424
-24.2597	-11.4016	-53.3679	-0.2688	0.5379	-0.0423
-24.3130	-11.4171	-53.3689	-0.2522	0.5495	-0.0423
-24.3354	-11.4338	-53.3687	-0.2422	0.5516	-0.0421
-24.3803	-11.4689	-53.3683	-0.2218	0.5543	-0.0415
-24.5448	-11.4149	-53.3776	-0.1857	0.6098	-0.0435
-24.6129	-11.5615	-53.3713	-0.1356	0.5750	-0.0396
-24.6778	-11.5400	-53.3751	-0.1177	0.5917	-0.0400
-24.9444	-11.6032	-53.3812	-0.0194	0.5917	-0.0363
-25.0003	-11.6092	-53.3829	0.0002	0.5903	-0.0355
-25.0318	-11.6000	-53.3846	0.0114	0.5934	-0.0353
-25.0593	-11.5833	-53.3866	0.0215	0.5988	-0.0353
-25.1376	-11.5278	-53.3930	0.0529	0.6159	-0.0351
-25.1658	-11.5402	-53.3932	0.0625	0.6093	-0.0344
-25.1904	-11.5185	-53.3955	0.0735	0.6154	-0.0343
-25.3384	-11.5951	-53.3963	0.1159	0.5724	-0.0302
-25.3678	-11.5961	-53.3975	0.1249	0.5681	-0.0296
-25.4007	-11.6112	-53.3978	0.1326	0.5588	-0.0287
-25.4291	-11.6064	-53.3991	0.1417	0.5559	-0.0282
-25.4568	-11.5981	-53.4006	0.1510	0.5538	-0.0278
-25.4876	-11.6009	-53.4016	0.1591	0.5478	-0.0271
-25.5181	-11.6012	-53.4027	0.1674	0.5423	-0.0265
-25.5474	-11.5972	-53.4040	0.1758	0.5380	-0.0259
-25.5756	-11.5889	-53.4056	0.1847	0.5347	-0.0254
-25.6036	-11.5801	-53.4071	0.1934	0.5313	-0.0248
-25.6381	-11.5886	-53.4080	0.1999	0.5221	-0.0240
-25.6784	-11.6094	-53.4083	0.2047	0.5091	-0.0231
-25.7117	-11.6109	-53.4094	0.2115	0.5018	-0.0224
-25.7328	-11.5834	-53.4118	0.2218	0.5029	-0.0221
-25.7575	-11.5646	-53.4139	0.2311	0.5010	-0.0216
-25.7933	-11.5699	-53.4149	0.2367	0.4917	-0.0208
-25.8286	-11.5816	-53.4155	0.2404	0.4815	-0.0201
-25.8749	-11.6041	-53.4158	0.2430	0.4671	-0.0191
-25.9534	-11.6152	-53.4182	0.2521	0.4477	-0.0176
-26.1756	-11.5959	-53.4276	0.2806	0.3996	-0.0137
-26.2360	-11.5633	-53.4320	0.2925	0.3884	-0.0125
-26.2759	-11.5592	-53.4337	0.2958	0.3797	-0.0119
-26.3167	-11.5550	-53.4354	0.2989	0.3708	-0.0112
-26.3532	-11.5446	-53.4374	0.3029	0.3632	-0.0106
-26.4703	-11.5704	-53.4402	0.3011	0.3376	-0.0092
-26.7003	-11.6553	-53.4438	0.2882	0.2939	-0.0070
-26.7644	-11.6620	-53.4458	0.2871	0.2832	-0.0064
-26.8221	-11.6601	-53.4480	0.2872	0.2740	-0.0058
-26.8675	-11.6453	-53.4506	0.2891	0.2668	-0.0053
-26.8973	-11.6155	-53.4535	0.2932	0.2618	-0.0049
-26.9508	-11.6061	-53.4561	0.2936	0.2535	-0.0044
-27.0168	-11.6057	-53.4585	0.2921	0.2439	-0.0038
-27.0841	-11.6041	-53.4611	0.2904	0.2345	-0.0033
-27.1387	-11.5902	-53.4642	0.2906	0.2267	-0.0028
-27.4245	-11.6346	-53.4721	0.2751	0.1944	-0.0015
-27.5005	-11.6270	-53.4754	0.2729	0.1861	-0.0011
-27.5678	-11.6109	-53.4789	0.2718	0.1788	-0.0007
-27.8151	-11.6430	-53.4861	0.2585	0.1581	0.0001
-28.2071	-11.6020	-53.5034	0.2446	0.1282	0.0014
-28.5798	-11.6485	-53.5144	0.2266	0.1093	0.0019
-28.8086	-11.6159	-53.5249	0.2191	0.0975	0.0023
-28.8630	-11.5636	-53.5301	0.2192	0.0932	0.0025
-28.9331	-11.5171	-53.5358	0.2183	0.0886	0.0028
-29.0167	-11.4741	-53.5415	0.2165	0.0837	0.0030
-29.5114	-11.4958	-53.5586	0.1975	0.0689	0.0032
-29.5994	-11.4416	-53.5651	0.1959	0.0648	0.0034
-31.7802	-11.3338	-53.6531	0.1413	0.0294	0.0035
-32.7183	-11.1330	-53.7001	0.1263	0.0198	0.0035
-32.7826	-11.0113	-53.7098	0.1259	0.0176	0.0036
-32.8776	-10.7591	-53.7290	0.1254	0.0133	0.0039
-23.7687	-11.4776	-53.3478	-0.3113	0.3932	-0.0355
-23.8007	-11.4898	-53.3483	-0.3062	0.4003	-0.0357
-23.9177	-11.4460	-53.3555	-0.3082	0.4340	-0.0378
-23.9481	-11.4562	-53.3560	-0.3024	0.4411	-0.0380
-23.9771	-11.4685	-53.3565	-0.2960	0.4475	-0.0381
-24.0711	-11.4909	-53.3588	-0.2780	0.4695	-0.0388
-24.2201	-11.3451	-53.3733	-0.2947	0.5376	-0.0435
-24.2405	-11.3640	-53.3729	-0.2845	0.5401	-0.0432
-24.2551	-11.3952	-53.3716	-0.2720	0.5379	-0.0426
-24.2649	-11.4379	-53.3695	-0.2577	0.5314	-0.0417
-24.3324	-11.4329	-53.3725	-0.2435	0.5510	-0.0423
-24.3726	-11.4706	-53.3718	-0.2237	0.5520	-0.0416
-24.8209	-11.4494	-53.3906	-0.0754	0.6432	-0.0413
-24.9956	-11.5950	-53.3888	-0.0016	0.5956	-0.0355
-25.0816	-11.5743	-53.3935	0.0297	0.6018	-0.0347
-25.1322	-11.5210	-53.3987	0.0511	0.6192	-0.0349
-25.1576	-11.5439	-53.3983	0.0591	0.6089	-0.0340
-25.3042	-11.5974	-53.4010	0.1046	0.5763	-0.0302
-25.3331	-11.5981	-53.4021	0.1137	0.5725	-0.0296
-25.3624	-11.5992	-53.4031	0.1227	0.5682	-0.0290
-25.4211	-11.6000	-53.4054	0.1403	0.5594	-0.0278
-25.4504	-11.5987	-53.4066	0.1491	0.5551	-0.0272
-25.4805	-11.5997	-53.4077	0.1574	0.5497	-0.0266
-25.5114	-11.6021	-53.4089	0.1654	0.5436	-0.0259
-25.5424	-11.6040	-53.4100	0.1733	0.5375	-0.0252
-25.5741	-11.6062	-53.4111	0.1810	0.5310	-0.0245
-25.6020	-11.5965	-53.4128	0.1897	0.5279	-0.0240
-25.6232	-11.5696	-53.4152	0.2004	0.5301	-0.0237
-26.0186	-11.6166	-53.4282	0.2603	0.4331	-0.0156
-26.0693	-11.6361	-53.4290	0.2618	0.4196	-0.0147
-26.1084	-11.6350	-53.4306	0.2660	0.4112	-0.0140
-26.1411	-11.6231	-53.4326	0.2718	0.4052	-0.0135
-26.1737	-11.6106	-53.4346	0.2774	0.3991	-0.0129
-26.2398	-11.5853	-53.4387	0.2879	0.3863	-0.0117
-26.2817	-11.5837	-53.4404	0.2909	0.3772	-0.0111
-26.3165	-11.5717	-53.4427	0.2954	0.3702	-0.0104
-26.3672	-11.5783	-53.4443	0.2963	0.3590	-0.0097
-26.4244	-11.5905	-53.4458	0.2959	0.3466	-0.0090
-26.4637	-11.5802	-53.4479	0.2991	0.3389	-0.0084
-26.5795	-11.6033	-53.4511	0.2967	0.3159	-0.0072
-26.8000	-11.6569	-53.4568	0.2880	0.2776	-0.0052
-26.8533	-11.6501	-53.4593	0.2886	0.2691	-0.0047
-26.8994	-11.6355	-53.4619	0.2902	0.2619	-0.0042
-26.9516	-11.6249	-53.4646	0.2909	0.2538	-0.0037
-27.0456	-11.5911	-53.4703	0.2935	0.2395	-0.0027
-27.1240	-11.5972	-53.4730	0.2903	0.2289	-0.0022
-27.1960	-11.5959	-53.4761	0.2880	0.2196	-0.0017
-27.4038	-11.6393	-53.4817	0.2755	0.1968	-0.0009
-27.4871	-11.6373	-53.4851	0.2725	0.1879	-0.0005
-27.5443	-11.6153	-53.4887	0.2724	0.1813	-0.0001
-28.1068	-11.6379	-53.5097	0.2466	0.1362	0.0016
-28.1745	-11.6074	-53.5141	0.2457	0.1305	0.0019
-28.7488	-11.6141	-53.5363	0.2216	0.1000	0.0028
-28.8138	-11.5681	-53.5419	0.2210	0.0954	0.0030
-28.9200	-11.5375	-53.5479	0.2180	0.0899	0.0032
-29.0048	-11.4955	-53.5537	0.2163	0.0850	0.0035
-29.5463	-11.5367	-53.5726	0.1953	0.0694	0.0036
-29.6206	-11.4775	-53.5791	0.1943	0.0654	0.0038
-29.7038	-11.4193	-53.5858	0.1930	0.0614	0.0039
-30.1989	-11.3893	-53.6074	0.1781	0.0503	0.0040
-31.8796	-11.2766	-53.6803	0.1398	0.0275	0.0039
-32.7863	-11.0571	-53.7296	0.1256	0.0183	0.0039
-32.7919	-10.9264	-53.7376	0.1261	0.0163	0.0040
-23.7478	-11.4883	-53.3486	-0.3100	0.3875	-0.0356
-23.7896	-11.4957	-53.3499	-0.3058	0.3972	-0.0360
-23.9000	-11.4548	-53.3568	-0.3077	0.4284	-0.0379
-23.9370	-11.4565	-53.3582	-0.3038	0.4381	-0.0383
-23.9730	-11.4581	-53.3596	-0.2995	0.4476	-0.0387
-24.0319	-11.4795	-53.3608	-0.2867	0.4607	-0.0390
-24.2327	-11.4204	-53.3725	-0.2698	0.5261	-0.0422
-24.2737	-11.4086	-53.3748	-0.2644	0.5404	-0.0428
-24.2946	-11.4198	-53.3751	-0.2564	0.5438	-0.0427
-24.3224	-11.4337	-53.3754	-0.2461	0.5482	-0.0425
-24.3441	-11.4530	-53.3751	-0.2356	0.5493	-0.0421
-24.3591	-11.4799	-53.3742	-0.2251	0.5464	-0.0415
-24.4376	-11.5101	-53.3756	-0.1975	0.5570	-0.0410
-24.8629	-11.4719	-53.3954	-0.0567	0.6381	-0.0401
-25.0432	-11.5837	-53.3963	0.0154	0.5998	-0.0348
-25.0741	-11.5727	-53.3982	0.0269	0.6030	-0.0346
-25.1243	-11.5559	-53.4014	0.0460	0.6071	-0.0340
-25.1505	-11.5437	-53.4032	0.0565	0.6100	-0.0337
-25.3318	-11.6107	-53.4066	0.1117	0.5691	-0.0291
-25.3528	-11.5913	-53.4088	0.1209	0.5725	-0.0289
-25.3830	-11.5970	-53.4097	0.1295	0.5664	-0.0282
-25.4142	-11.6050	-53.4105	0.1376	0.5594	-0.0274
-25.4421	-11.5990	-53.4120	0.1467	0.5567	-0.0269
-25.4721	-11.6003	-53.4131	0.1551	0.5514	-0.0262
-25.5029	-11.6028	-53.4142	0.1631	0.5454	-0.0255
-25.5348	-11.6077	-53.4153	0.1707	0.5383	-0.0248
-25.5633	-11.6006	-53.4169	0.1794	0.5348	-0.0242
-25.5835	-11.5705	-53.4196	0.1906	0.5385	-0.0240
-25.6965	-11.6184	-53.4214	0.2069	0.5040	-0.0213
-25.7588	-11.6092	-53.4245	0.2216	0.4926	-0.0200
-25.8653	-11.6171	-53.4286	0.2388	0.4678	-0.0178
-25.9598	-11.6014	-53.4334	0.2565	0.4487	-0.0160
-26.1031	-11.6481	-53.4365	0.2629	0.4112	-0.0135
-26.1358	-11.6365	-53.4387	0.2686	0.4053	-0.0129
-26.1633	-11.6168	-53.4410	0.2754	0.4010	-0.0123
-26.1905	-11.5966	-53.4433	0.2821	0.3966	-0.0118
-26.2215	-11.5817	-53.4455	0.2877	0.3908	-0.0112
-26.2937	-11.5632	-53.4495	0.2963	0.3758	-0.0100
-26.3529	-11.5811	-53.4509	0.2953	0.3620	-0.0092
-26.4086	-11.5922	-53.4526	0.2952	0.3499	-0.0085
-26.4472	-11.5815	-53.4549	0.2986	0.3423	-0.0079
-26.5736	-11.6103	-53.4585	0.2956	0.3170	-0.0065
-26.8146	-11.6922	-53.4636	0.2825	0.2755	-0.0046
-26.8531	-11.6709	-53.4664	0.2856	0.2694	-0.0041
-26.8832	-11.6414	-53.4696	0.2898	0.2644	-0.0036
-26.9161	-11.6139	-53.4726	0.2934	0.2590	-0.0032
-26.9606	-11.5962	-53.4754	0.2951	0.2519	-0.0027
-27.0250	-11.5941	-53.4782	0.2938	0.2425	-0.0022
-27.0844	-11.5860	-53.4812	0.2932	0.2339	-0.0017
-27.1576	-11.5867	-53.4841	0.2907	0.2242	-0.0012
-27.3839	-11.6462	-53.4900	0.2756	0.1992	-0.0004
-27.4572	-11.6381	-53.4937	0.2737	0.1910	0.0000
-27.5300	-11.6274	-53.4973	0.2719	0.1832	0.0004
-28.8683	-11.6176	-53.5535	0.2169	0.0950	0.0034
-28.9280	-11.5669	-53.5590	0.2166	0.0907	0.0036
-28.9936	-11.5172	-53.5646	0.2160	0.0862	0.0039
-29.4295	-11.5235	-53.5826	0.1996	0.0721	0.0040
-29.5706	-11.4895	-53.5905	0.1957	0.0671	0.0042
-29.6871	-11.4432	-53.5980	0.1930	0.0626	0.0043
-31.1551	-11.3848	-53.6627	0.1537	0.0365	0.0042
-31.9521	-11.3327	-53.6988	0.1381	0.0280	0.0041
-32.8345	-10.3239	-53.7954	0.1271	0.0065	0.0049
-23.8858	-11.4602	-53.3579	-0.3079	0.4241	-0.0382
-23.9262	-11.4572	-53.3599	-0.3050	0.4351	-0.0387
-23.9574	-11.4666	-53.3606	-0.2993	0.4425	-0.0389
-23.9842	-11.4819	-53.3609	-0.2923	0.4479	-0.0389
-24.0233	-11.4774	-53.3629	-0.2887	0.4588	-0.0394
-24.0605	-11.4746	-53.3646	-0.2845	0.4691	-0.0398
-24.2215	-11.3738	-53.3775	-0.2862	0.5324	-0.0436
-24.2410	-11.3954	-53.3770	-0.2757	0.5339	-0.0432
-24.2663	-11.4059	-53.3775	-0.2672	0.5390	-0.0432
-24.2856	-11.4209	-53.3775	-0.2586	0.5412	-0.0430
-24.3125	-11.4280	-53.3782	-0.2504	0.5470	-0.0429
-24.3628	-11.4588	-53.3786	-0.2298	0.5529	-0.0424
-24.3802	-11.4799	-53.3781	-0.2201	0.5518	-0.0419
-24.4321	-11.4997	-53.3792	-0.2017	0.5589	-0.0415
-24.5510	-11.4079	-53.3897	-0.1862	0.6144	-0.0442
-24.5827	-11.3913	-53.3921	-0.1788	0.6275	-0.0446
-24.8676	-11.5998	-53.3921	-0.0469	0.5908	-0.0368
-24.9835	-11.5943	-53.3975	-0.0061	0.5966	-0.0354
-25.0113	-11.5804	-53.3995	0.0038	0.6017	-0.0352
-25.0936	-11.5671	-53.4039	0.0342	0.6049	-0.0341
-25.1434	-11.5096	-53.4095	0.0561	0.6239	-0.0343
-25.3495	-11.5892	-53.4138	0.1203	0.5740	-0.0286
-25.3743	-11.5880	-53.4149	0.1282	0.5709	-0.0280
-25.4069	-11.6030	-53.4155	0.1359	0.5615	-0.0272
-25.4363	-11.6029	-53.4167	0.1445	0.5570	-0.0265
-25.4656	-11.6013	-53.4181	0.1532	0.5526	-0.0259
-25.4941	-11.5964	-53.4196	0.1620	0.5491	-0.0253
-25.5253	-11.5995	-53.4208	0.1699	0.5426	-0.0246
-25.5567	-11.6021	-53.4220	0.1776	0.5361	-0.0239
-25.5859	-11.5975	-53.4236	0.1859	0.5316	-0.0232
-25.6149	-11.5914	-53.4252	0.1943	0.5273	-0.0226
-25.6474	-11.5942	-53.4265	0.2014	0.5200	-0.0219
-25.6857	-11.6102	-53.4272	0.2066	0.5084	-0.0210
-25.7081	-11.5858	-53.4296	0.2166	0.5088	-0.0206
-25.8033	-11.5867	-53.4337	0.2353	0.4873	-0.0185
-25.8976	-11.6266	-53.4355	0.2420	0.4594	-0.0165
-25.9358	-11.6300	-53.4370	0.2469	0.4504	-0.0158
-26.0022	-11.6246	-53.4401	0.2570	0.4363	-0.0145
-26.0457	-11.6335	-53.4415	0.2602	0.4256	-0.0138
-26.0903	-11.6423	-53.4429	0.2631	0.4148	-0.0130
-26.1679	-11.6369	-53.4467	0.2716	0.3985	-0.0117
-26.2024	-11.6264	-53.4488	0.2767	0.3919	-0.0111
-26.2226	-11.5959	-53.4515	0.2849	0.3897	-0.0106
-26.2452	-11.5693	-53.4540	0.2924	0.3865	-0.0101
-26.2809	-11.5595	-53.4562	0.2967	0.3790	-0.0094
-26.3316	-11.5678	-53.4579	0.2975	0.3674	-0.0087
-26.3912	-11.5848	-53.4594	0.2964	0.3539	-0.0080
-26.4322	-11.5775	-53.4618	0.2993	0.3456	-0.0074
-26.5580	-11.6072	-53.4655	0.2962	0.3201	-0.0060
-26.7098	-11.6601	-53.4690	0.2880	0.2925	-0.0047
-26.8439	-11.6764	-53.4738	0.2850	0.2709	-0.0036
-26.8763	-11.6491	-53.4768	0.2889	0.2656	-0.0031
-26.9262	-11.6371	-53.4799	0.2899	0.2579	-0.0026
-26.9566	-11.6070	-53.4829	0.2938	0.2528	-0.0021
-27.0698	-11.5882	-53.4890	0.2935	0.2360	-0.0011
-27.1176	-11.5697	-53.4921	0.2945	0.2289	-0.0007
-27.4420	-11.6423	-53.5019	0.2740	0.1928	0.0005
-27.5122	-11.6303	-53.5059	0.2725	0.1851	0.0009
-27.8790	-11.6774	-53.5190	0.2534	0.1543	0.0019
-27.9636	-11.6624	-53.5236	0.2511	0.1473	0.0022
-28.0252	-11.6315	-53.5280	0.2507	0.1415	0.0026
-28.1030	-11.6084	-53.5328	0.2490	0.1351	0.0029
-28.1535	-11.5689	-53.5375	0.2493	0.1300	0.0032
-28.4756	-11.5931	-53.5501	0.2338	0.1123	0.0036
-28.9200	-11.5822	-53.5700	0.2164	0.0915	0.0040
-28.9987	-11.5380	-53.5760	0.2150	0.0868	0.0042
-29.0920	-11.4975	-53.5825	0.2129	0.0818	0.0044
-30.6193	-11.3795	-53.6561	0.1667	0.0432	0.0047
-31.9241	-11.3556	-53.7146	0.1384	0.0286	0.0043
-32.0124	-11.2532	-53.7244	0.1375	0.0261	0.0045
-32.8727	-11.0153	-53.7759	0.1245	0.0172	0.0044
-23.8784	-11.4631	-53.3595	-0.3080	0.4219	-0.0385
-23.9206	-11.4578	-53.3617	-0.3057	0.4336	-0.0391
-23.9467	-11.4747	-53.3619	-0.2986	0.4388	-0.0391
-23.9819	-11.4778	-53.3633	-0.2939	0.4478	-0.0394
-24.0473	-11.4886	-53.3657	-0.2829	0.4637	-0.0399
-24.2104	-11.3790	-53.3794	-0.2872	0.5281	-0.0438
-24.2844	-11.4147	-53.3806	-0.2610	0.5424	-0.0435
-24.3137	-11.4253	-53.3814	-0.2512	0.5482	-0.0434
-24.3617	-11.4518	-53.3820	-0.2323	0.5546	-0.0429
-24.3808	-11.4683	-53.3819	-0.2232	0.5552	-0.0426
-24.4293	-11.4955	-53.3825	-0.2038	0.5596	-0.0419
-24.8139	-11.3494	-53.4085	-0.0904	0.6876	-0.0443
-24.8379	-11.3775	-53.4079	-0.0761	0.6774	-0.0431
-24.9005	-11.4944	-53.4039	-0.0405	0.6324	-0.0389
-24.9776	-11.6085	-53.4008	-0.0082	0.5920	-0.0350
-25.0057	-11.6057	-53.4022	0.0017	0.5932	-0.0347
-25.0299	-11.5996	-53.4037	0.0103	0.5952	-0.0344
-25.0610	-11.5828	-53.4061	0.0217	0.6007	-0.0342
-25.0869	-11.5488	-53.4092	0.0324	0.6124	-0.0344
-25.1128	-11.5303	-53.4115	0.0431	0.6183	-0.0343
-25.1384	-11.5143	-53.4137	0.0539	0.6229	-0.0341
-25.2130	-11.4711	-53.4196	0.0869	0.6334	-0.0332
-25.3453	-11.6169	-53.4170	0.1153	0.5664	-0.0280
-25.4285	-11.5940	-53.4222	0.1438	0.5613	-0.0264
-25.4602	-11.6012	-53.4232	0.1518	0.5540	-0.0256
-25.4909	-11.6029	-53.4245	0.1601	0.5483	-0.0249
-25.5214	-11.6043	-53.4258	0.1682	0.5425	-0.0242
-25.5506	-11.6003	-53.4273	0.1766	0.5382	-0.0235
-25.5798	-11.5958	-53.4289	0.1849	0.5337	-0.0229
-25.6017	-11.5711	-53.4315	0.1955	0.5354	-0.0225
-25.7687	-11.5890	-53.4380	0.2285	0.4951	-0.0187
-25.8070	-11.5987	-53.4391	0.2335	0.4846	-0.0178
-25.8384	-11.6023	-53.4405	0.2382	0.4769	-0.0172
-25.8746	-11.6052	-53.4420	0.2435	0.4682	-0.0164
-25.9307	-11.5692	-53.4466	0.2605	0.4606	-0.0152
-26.0301	-11.6212	-53.4481	0.2614	0.4307	-0.0134
-26.0738	-11.6295	-53.4496	0.2645	0.4200	-0.0126
-26.1285	-11.6526	-53.4507	0.2649	0.4058	-0.0118
-26.1687	-11.6512	-53.4527	0.2689	0.3973	-0.0111
-26.2010	-11.6376	-53.4550	0.2745	0.3915	-0.0105
-26.2249	-11.6120	-53.4576	0.2818	0.3883	-0.0100
-26.2453	-11.5820	-53.4602	0.2898	0.3858	-0.0095
-26.2774	-11.5677	-53.4625	0.2950	0.3795	-0.0089
-26.3870	-11.5926	-53.4660	0.2949	0.3546	-0.0074
-26.6779	-11.6995	-53.4731	0.2814	0.2977	-0.0047
-26.6803	-11.6445	-53.4764	0.2908	0.2976	-0.0042
-26.8327	-11.6811	-53.4812	0.2846	0.2727	-0.0031
-26.8644	-11.6533	-53.4843	0.2886	0.2676	-0.0026
-26.9121	-11.6397	-53.4874	0.2900	0.2601	-0.0021
-26.9653	-11.6293	-53.4904	0.2906	0.2520	-0.0016
-26.9932	-11.5965	-53.4936	0.2947	0.2471	-0.0011
-27.0400	-11.5791	-53.4968	0.2959	0.2399	-0.0006
-27.1166	-11.5840	-53.5000	0.2928	0.2295	-0.0002
-27.4205	-11.6431	-53.5103	0.2748	0.1951	0.0010
-27.5073	-11.6428	-53.5144	0.2716	0.1860	0.0014
-27.5737	-11.6265	-53.5184	0.2705	0.1788	0.0018
-27.8006	-11.6462	-53.5276	0.2593	0.1593	0.0024
-28.0755	-11.6106	-53.5422	0.2501	0.1371	0.0033
-28.1047	-11.5604	-53.5464	0.2522	0.1328	0.0037
-28.1555	-11.5207	-53.5513	0.2524	0.1276	0.0040
-28.8889	-11.5882	-53.5807	0.2174	0.0929	0.0044
-28.9574	-11.5406	-53.5866	0.2166	0.0884	0.0047
-29.0357	-11.4951	-53.5928	0.2152	0.0837	0.0049
-29.7230	-11.4971	-53.6242	0.1906	0.0634	0.0050
-29.8608	-11.4540	-53.6330	0.1871	0.0588	0.0051
-29.9544	-11.3933	-53.6408	0.1855	0.0549	0.0052
-30.5636	-11.3884	-53.6689	0.1680	0.0442	0.0051
-31.9543	-11.2703	-53.7395	0.1385	0.0268	0.0047
-23.7832	-11.4593	-53.3575	-0.3161	0.3976	-0.0381
-23.8088	-11.4794	-53.3575	-0.3095	0.4028	-0.0381
-23.9170	-11.4466	-53.3645	-0.3094	0.4336	-0.0399
-24.1148	-11.4742	-53.3722	-0.2773	0.4839	-0.0414
-24.2039	-11.4323	-53.3789	-0.2734	0.5160	-0.0431
-24.3484	-11.4529	-53.3845	-0.2358	0.5511	-0.0434
-24.3741	-11.4723	-53.3846	-0.2244	0.5527	-0.0429
-24.4989	-11.3661	-53.3967	-0.2152	0.6163	-0.0462
-24.5607	-11.5214	-53.3906	-0.1603	0.5800	-0.0415
-24.6549	-11.4763	-53.3977	-0.1369	0.6120	-0.0423
-24.7309	-11.4996	-53.3999	-0.1058	0.6150	-0.0410
-24.9957	-11.5514	-53.4095	-0.0021	0.6136	-0.0360
-25.0195	-11.5763	-53.4092	0.0067	0.6043	-0.0351
-25.0781	-11.5728	-53.4121	0.0282	0.6044	-0.0341
-25.1044	-11.5525	-53.4146	0.0387	0.6110	-0.0340
-25.1564	-11.5264	-53.4186	0.0599	0.6177	-0.0333
-25.3263	-11.5766	-53.4237	0.1147	0.5823	-0.0287
-25.3584	-11.5925	-53.4244	0.1228	0.5728	-0.0277
-25.3893	-11.6001	-53.4254	0.1313	0.5661	-0.0269
-25.4193	-11.6022	-53.4267	0.1400	0.5609	-0.0262
-25.4490	-11.6018	-53.4281	0.1487	0.5563	-0.0256
-25.4796	-11.6038	-53.4295	0.1570	0.5506	-0.0248
-25.5095	-11.6023	-53.4310	0.1655	0.5457	-0.0241
-25.5441	-11.6146	-53.4319	0.1725	0.5362	-0.0233
-25.5751	-11.6140	-53.4334	0.1805	0.5306	-0.0225
-25.5994	-11.5939	-53.4358	0.1904	0.5308	-0.0221
-25.6241	-11.5764	-53.4380	0.2001	0.5300	-0.0216
-25.6940	-11.5929	-53.4404	0.2126	0.5112	-0.0199
-25.8195	-11.5789	-53.4472	0.2406	0.4857	-0.0171
-26.0100	-11.6095	-53.4545	0.2620	0.4370	-0.0132
-26.0481	-11.6097	-53.4563	0.2665	0.4283	-0.0125
-26.2085	-11.6097	-53.4640	0.2814	0.3922	-0.0096
-26.2319	-11.5841	-53.4666	0.2888	0.3889	-0.0091
-26.2736	-11.5827	-53.4687	0.2918	0.3797	-0.0084
-26.3262	-11.5936	-53.4705	0.2923	0.3676	-0.0077
-26.3668	-11.5879	-53.4728	0.2954	0.3592	-0.0070
-26.4142	-11.5887	-53.4750	0.2970	0.3493	-0.0064
-26.4763	-11.6051	-53.4771	0.2955	0.3362	-0.0057
-26.5350	-11.6225	-53.4789	0.2935	0.3244	-0.0051
-26.7046	-11.6899	-53.4830	0.2835	0.2934	-0.0037
-26.7595	-11.6878	-53.4857	0.2840	0.2844	-0.0032
-26.8105	-11.6803	-53.4885	0.2851	0.2762	-0.0027
-26.8573	-11.6674	-53.4915	0.2868	0.2688	-0.0021
-26.9058	-11.6547	-53.4947	0.2881	0.2613	-0.0016
-26.9498	-11.6370	-53.4979	0.2900	0.2544	-0.0011
-26.9845	-11.6105	-53.5011	0.2931	0.2488	-0.0007
-27.0374	-11.5986	-53.5043	0.2935	0.2409	-0.0002
-27.1024	-11.5946	-53.5076	0.2921	0.2318	0.0003
-27.4807	-11.6483	-53.5226	0.2722	0.1889	0.0019
-27.5662	-11.6454	-53.5268	0.2691	0.1803	0.0022
-27.9234	-11.6812	-53.5417	0.2516	0.1510	0.0031
-28.0144	-11.6684	-53.5468	0.2488	0.1438	0.0034
-28.0914	-11.5790	-53.5557	0.2517	0.1345	0.0041
-28.1191	-11.5282	-53.5602	0.2538	0.1303	0.0044
-28.1927	-11.4997	-53.5653	0.2521	0.1242	0.0047
-28.7843	-11.5727	-53.5892	0.2222	0.0966	0.0049
-29.0103	-11.5155	-53.6033	0.2155	0.0854	0.0052
-29.7058	-11.4389	-53.6411	0.1925	0.0619	0.0055
-30.5712	-11.4164	-53.6836	0.1674	0.0448	0.0053
-31.8452	-11.4124	-53.7449	0.1394	0.0302	0.0049
-32.2233	-11.2457	-53.7726	0.1338	0.0244	0.0049
-32.6479	-11.0629	-53.8035	0.1278	0.0190	0.0050
-32.6819	-10.4265	-53.8428	0.1294	0.0084	0.0057
-23.8016	-11.4661	-53.3600	-0.3137	0.4018	-0.0389
-23.9333	-11.4544	-53.3672	-0.3062	0.4373	-0.0406
-23.9826	-11.4842	-53.3678	-0.2930	0.4472	-0.0405
-24.0183	-11.4929	-53.3691	-0.2864	0.4556	-0.0407
-24.0639	-11.4766	-53.3723	-0.2847	0.4699	-0.0415
-24.2348	-11.4070	-53.3848	-0.2750	0.5301	-0.0445
-24.2482	-11.4418	-53.3834	-0.2623	0.5267	-0.0437
-24.3156	-11.4288	-53.3875	-0.2508	0.5483	-0.0444
-24.3401	-11.4409	-53.3880	-0.2416	0.5521	-0.0442
-24.3664	-11.4576	-53.3883	-0.2305	0.5548	-0.0438
-24.5481	-11.4236	-53.3993	-0.1850	0.6095	-0.0448
-24.5829	-11.3954	-53.4027	-0.1791	0.6274	-0.0455
-24.6149	-11.3733	-53.4056	-0.1721	0.6429	-0.0461
-24.9245	-11.5890	-53.4083	-0.0279	0.5988	-0.0364
-24.9765	-11.5688	-53.4121	-0.0094	0.6075	-0.0360
-25.0073	-11.5551	-53.4144	0.0021	0.6128	-0.0358
-25.0347	-11.5688	-53.4149	0.0122	0.6075	-0.0350
-25.0866	-11.5171	-53.4205	0.0334	0.6259	-0.0350
-25.1645	-11.5002	-53.4254	0.0650	0.6279	-0.0336
-25.4332	-11.6138	-53.4321	0.1423	0.5559	-0.0255
-25.4612	-11.6065	-53.4339	0.1516	0.5535	-0.0249
-25.4904	-11.6035	-53.4356	0.1603	0.5493	-0.0243
-25.5197	-11.6000	-53.4372	0.1689	0.5450	-0.0236
-25.5508	-11.6017	-53.4386	0.1768	0.5388	-0.0228
-25.5799	-11.5962	-53.4405	0.1854	0.5346	-0.0221
-25.6085	-11.5893	-53.4423	0.1939	0.5306	-0.0215
-25.6400	-11.5893	-53.4439	0.2014	0.5240	-0.0207
-25.6761	-11.5998	-53.4450	0.2074	0.5140	-0.0199
-25.7089	-11.6004	-53.4466	0.2144	0.5068	-0.0191
-25.7397	-11.5959	-53.4484	0.2218	0.5010	-0.0184
-25.7708	-11.5907	-53.4503	0.2291	0.4951	-0.0177
-26.0370	-11.6290	-53.4613	0.2612	0.4289	-0.0122
-26.0880	-11.6480	-53.4627	0.2626	0.4155	-0.0114
-26.1266	-11.6459	-53.4649	0.2669	0.4073	-0.0107
-26.1571	-11.6304	-53.4673	0.2730	0.4021	-0.0100
-26.1955	-11.6258	-53.4695	0.2772	0.3941	-0.0094
-26.2316	-11.6172	-53.4717	0.2818	0.3868	-0.0087
-26.2540	-11.5894	-53.4745	0.2894	0.3838	-0.0082
-26.2812	-11.5687	-53.4770	0.2957	0.3790	-0.0076
-26.3270	-11.5706	-53.4792	0.2977	0.3687	-0.0069
-26.3867	-11.5877	-53.4811	0.2966	0.3552	-0.0061
-26.4453	-11.6009	-53.4834	0.2958	0.3426	-0.0054
-26.4828	-11.5881	-53.4860	0.2994	0.3354	-0.0048
-26.7228	-11.6825	-53.4924	0.2851	0.2905	-0.0029
-26.8298	-11.6722	-53.4983	0.2865	0.2732	-0.0018
-26.8599	-11.6431	-53.5015	0.2907	0.2682	-0.0013
-26.9229	-11.6437	-53.5047	0.2897	0.2586	-0.0008
-26.9775	-11.6346	-53.5079	0.2900	0.2504	-0.0003
-27.0062	-11.6023	-53.5113	0.2940	0.2454	0.0002
-27.0515	-11.5834	-53.5146	0.2954	0.2384	0.0007
-27.1101	-11.5739	-53.5181	0.2949	0.2300	0.0011
-27.4493	-11.6587	-53.5299	0.2725	0.1926	0.0022
-27.5014	-11.6343	-53.5341	0.2730	0.1862	0.0026
-27.5537	-11.6085	-53.5382	0.2734	0.1799	0.0030
-28.0338	-11.6486	-53.5597	0.2495	0.1415	0.0041
-28.0925	-11.6149	-53.5645	0.2493	0.1360	0.0044
-28.5485	-11.6504	-53.5853	0.2281	0.1107	0.0048
-28.8463	-11.6402	-53.6007	0.2170	0.0966	0.0051
-28.9413	-11.6045	-53.6075	0.2149	0.0914	0.0053
-28.9785	-11.5431	-53.6129	0.2158	0.0876	0.0056
-29.0680	-11.5016	-53.6198	0.2138	0.0827	0.0058
-29.1852	-11.4679	-53.6278	0.2104	0.0774	0.0059
-29.5971	-11.4487	-53.6494	0.1960	0.0648	0.0059
-30.0148	-11.4042	-53.6728	0.1834	0.0540	0.0059
-31.8861	-11.3642	-53.7684	0.1390	0.0290	0.0052
-32.7259	-11.1425	-53.8231	0.1261	0.0198	0.0051
-32.7188	-11.0108	-53.8305	0.1269	0.0178	0.0053
-23.7923	-11.4504	-53.3624	-0.3185	0.4003	-0.0395
-23.8171	-11.4711	-53.3624	-0.3116	0.4054	-0.0395
-23.8581	-11.4770	-53.3641	-0.3071	0.4154	-0.0398
-23.9076	-11.4625	-53.3676	-0.3067	0.4296	-0.0406
-23.9434	-11.4657	-53.3692	-0.3024	0.4388	-0.0410
-23.9768	-11.4715	-53.3706	-0.2973	0.4471	-0.0412
-24.0432	-11.4810	-53.3734	-0.2866	0.4637	-0.0416
-24.0863	-11.4675	-53.3764	-0.2842	0.4773	-0.0423
-24.2803	-11.4151	-53.3894	-0.2632	0.5416	-0.0450
-24.3026	-11.4235	-53.3900	-0.2556	0.5460	-0.0448
-24.3233	-11.4440	-53.3899	-0.2451	0.5469	-0.0444
-24.3711	-11.4722	-53.3906	-0.2260	0.5524	-0.0437
-24.3916	-11.4955	-53.3903	-0.2150	0.5515	-0.0431
-24.5660	-11.4069	-53.4044	-0.1829	0.6196	-0.0454
-24.6108	-11.4370	-53.4050	-0.1606	0.6186	-0.0442
-24.6385	-11.4317	-53.4067	-0.1515	0.6260	-0.0442
-24.9112	-11.5542	-53.4136	-0.0342	0.6114	-0.0373
-24.9393	-11.5246	-53.4168	-0.0245	0.6238	-0.0376
-24.9880	-11.6078	-53.4144	-0.0049	0.5938	-0.0348
-25.0701	-11.4878	-53.4256	0.0279	0.6386	-0.0358
-25.0967	-11.4965	-53.4265	0.0383	0.6340	-0.0350
-25.1239	-11.5107	-53.4270	0.0483	0.6269	-0.0340
-25.1515	-11.5235	-53.4278	0.0582	0.6202	-0.0331
-25.1769	-11.5119	-53.4297	0.0688	0.6227	-0.0327
-25.2023	-11.5009	-53.4317	0.0796	0.6246	-0.0323
-25.3478	-11.5719	-53.4350	0.1225	0.5818	-0.0276
-25.3783	-11.5806	-53.4361	0.1310	0.5746	-0.0267
-25.4102	-11.5927	-53.4371	0.1389	0.5661	-0.0258
-25.4422	-11.6022	-53.4381	0.1469	0.5582	-0.0250
-25.4723	-11.6034	-53.4396	0.1553	0.5528	-0.0242
-25.5031	-11.6060	-53.4410	0.1634	0.5467	-0.0235
-25.5338	-11.6070	-53.4425	0.1715	0.5409	-0.0227
-25.5620	-11.5990	-53.4445	0.1804	0.5377	-0.0221
-25.5903	-11.5914	-53.4463	0.1891	0.5340	-0.0214
-25.6178	-11.5815	-53.4484	0.1979	0.5308	-0.0208
-25.6788	-11.5760	-53.4519	0.2134	0.5190	-0.0193
-25.7506	-11.5920	-53.4546	0.2250	0.4996	-0.0176
-25.8195	-11.5951	-53.4580	0.2373	0.4834	-0.0160
-25.8583	-11.6126	-53.4589	0.2400	0.4716	-0.0152
-25.8931	-11.6025	-53.4613	0.2479	0.4653	-0.0144
-25.9871	-11.6489	-53.4635	0.2508	0.4376	-0.0126
-26.0221	-11.6436	-53.4656	0.2563	0.4306	-0.0119
-26.0630	-11.6469	-53.4675	0.2603	0.4213	-0.0112
-26.1010	-11.6443	-53.4696	0.2648	0.4132	-0.0105
-26.2049	-11.6164	-53.4766	0.2802	0.3929	-0.0085
-26.2416	-11.6084	-53.4790	0.2846	0.3854	-0.0078
-26.2704	-11.5893	-53.4816	0.2907	0.3803	-0.0072
-26.3157	-11.5909	-53.4839	0.2928	0.3703	-0.0065
-26.3562	-11.5853	-53.4862	0.2960	0.3618	-0.0059
-26.4118	-11.5963	-53.4885	0.2958	0.3497	-0.0052
-26.4741	-11.6127	-53.4907	0.2944	0.3366	-0.0045
-26.5232	-11.6119	-53.4933	0.2957	0.3270	-0.0039
-26.6715	-11.6650	-53.4978	0.2879	0.2993	-0.0027
-26.7188	-11.6565	-53.5008	0.2896	0.2912	-0.0021
-26.8522	-11.6715	-53.5068	0.2866	0.2697	-0.0010
-26.9037	-11.6615	-53.5100	0.2875	0.2618	-0.0005
-26.9471	-11.6430	-53.5133	0.2895	0.2550	0.0000
-26.9674	-11.6043	-53.5166	0.2948	0.2512	0.0005
-26.9901	-11.5678	-53.5199	0.2996	0.2468	0.0010
-27.4077	-11.6662	-53.5358	0.2733	0.1973	0.0026
-27.4681	-11.6485	-53.5399	0.2729	0.1902	0.0029
-27.5275	-11.6289	-53.5441	0.2726	0.1834	0.0033
-28.7930	-11.6643	-53.6072	0.2180	0.0997	0.0054
-28.8312	-11.6057	-53.6125	0.2190	0.0959	0.0057
-28.8472	-11.5374	-53.6173	0.2212	0.0925	0.0060
-29.1504	-11.5050	-53.6350	0.2105	0.0799	0.0062
-31.8098	-11.4252	-53.7767	0.1399	0.0307	0.0054
-32.1487	-11.2532	-53.8041	0.1351	0.0250	0.0055
-32.7136	-11.0950	-53.8423	0.1266	0.0191	0.0054
-32.7036	-10.9641	-53.8494	0.1273	0.0171	0.0056
-32.7061	-10.7056	-53.8649	0.1282	0.0129	0.0058
-32.6947	-10.5759	-53.8719	0.1288	0.0108	0.0060
-23.8029	-11.4678	-53.3635	-0.3135	0.4019	-0.0397
-23.9432	-11.4839	-53.3700	-0.2977	0.4368	-0.0409
-23.9714	-11.4980	-53.3706	-0.2910	0.4427	-0.0409
-24.1019	-11.4678	-53.3793	-0.2819	0.4815	-0.0426
-24.2647	-11.4065	-53.3914	-0.2692	0.5390	-0.0453
-24.2885	-11.4204	-53.3919	-0.2599	0.5428	-0.0450
-24.3109	-11.4376	-53.3921	-0.2500	0.5451	-0.0446
-24.3310	-11.4608	-53.3918	-0.2390	0.5449	-0.0440
-24.3530	-11.4801	-53.3918	-0.2286	0.5459	-0.0436
-24.3830	-11.4903	-53.3928	-0.2186	0.5508	-0.0433
-24.6296	-11.4227	-53.4098	-0.1567	0.6277	-0.0445
-24.8742	-11.5600	-53.4148	-0.0477	0.6075	-0.0376
-24.9010	-11.5690	-53.4157	-0.0374	0.6056	-0.0369
-24.9290	-11.5526	-53.4182	-0.0276	0.6129	-0.0368
-24.9824	-11.5952	-53.4185	-0.0071	0.5985	-0.0349
-25.0101	-11.5764	-53.4211	0.0029	0.6054	-0.0348
-25.0339	-11.5832	-53.4220	0.0116	0.6028	-0.0342
-25.1421	-11.5238	-53.4312	0.0545	0.6210	-0.0330
-25.1685	-11.5233	-53.4326	0.0647	0.6192	-0.0323
-25.2148	-11.4726	-53.4380	0.0875	0.6346	-0.0320
-25.3692	-11.5924	-53.4393	0.1264	0.5725	-0.0264
-25.3993	-11.5979	-53.4406	0.1348	0.5664	-0.0256
-25.4289	-11.5999	-53.4420	0.1434	0.5611	-0.0248
-25.4590	-11.6024	-53.4435	0.1518	0.5555	-0.0240
-25.4882	-11.6004	-53.4451	0.1603	0.5511	-0.0233
-25.5195	-11.6047	-53.4465	0.1681	0.5443	-0.0225
-25.5498	-11.6046	-53.4481	0.1762	0.5387	-0.0218
-25.5698	-11.5737	-53.4511	0.1875	0.5428	-0.0214
-25.5968	-11.5642	-53.4530	0.1964	0.5397	-0.0208
-25.6380	-11.5916	-53.4536	0.2007	0.5244	-0.0197
-25.6690	-11.5902	-53.4553	0.2081	0.5181	-0.0189
-25.7040	-11.5975	-53.4568	0.2142	0.5089	-0.0180
-25.7989	-11.5890	-53.4623	0.2351	0.4894	-0.0158
-25.9195	-11.6207	-53.4669	0.2478	0.4567	-0.0132
-25.9452	-11.6020	-53.4694	0.2558	0.4535	-0.0126
-26.0251	-11.6202	-53.4725	0.2620	0.4328	-0.0111
-26.0725	-11.6346	-53.4742	0.2641	0.4206	-0.0103
-26.1998	-11.6427	-53.4806	0.2742	0.3921	-0.0081
-26.2162	-11.6065	-53.4836	0.2833	0.3912	-0.0076
-26.2444	-11.5870	-53.4862	0.2896	0.3863	-0.0070
-26.2765	-11.5726	-53.4887	0.2948	0.3800	-0.0063
-26.3211	-11.5732	-53.4910	0.2971	0.3701	-0.0056
-26.3826	-11.5927	-53.4932	0.2956	0.3560	-0.0049
-26.4431	-11.6084	-53.4956	0.2945	0.3430	-0.0042
-26.7062	-11.6752	-53.5057	0.2865	0.2933	-0.0018
-26.7526	-11.6643	-53.5087	0.2883	0.2856	-0.0012
-26.8128	-11.6656	-53.5118	0.2879	0.2759	-0.0007
-26.8669	-11.6592	-53.5151	0.2884	0.2674	-0.0002
-26.9213	-11.6515	-53.5186	0.2888	0.2590	0.0004
-26.9707	-11.6379	-53.5220	0.2899	0.2515	0.0009
-27.0017	-11.6077	-53.5253	0.2935	0.2463	0.0013
-27.0493	-11.5908	-53.5288	0.2946	0.2390	0.0018
-27.1064	-11.5801	-53.5325	0.2943	0.2308	0.0023
-27.1685	-11.5717	-53.5362	0.2932	0.2222	0.0027
-27.5218	-11.6574	-53.5502	0.2700	0.1851	0.0036
-27.5917	-11.6431	-53.5547	0.2686	0.1777	0.0040
-27.9005	-11.6470	-53.5709	0.2553	0.1513	0.0048
-28.1221	-11.6415	-53.5829	0.2463	0.1351	0.0053
-28.1782	-11.6045	-53.5882	0.2463	0.1298	0.0056
-28.8124	-11.6363	-53.6200	0.2185	0.0978	0.0060
-28.8446	-11.5749	-53.6253	0.2198	0.0941	0.0062
-28.9082	-11.5262	-53.6315	0.2192	0.0896	0.0065
-29.1874	-11.4803	-53.6491	0.2099	0.0778	0.0067
-30.5929	-11.4018	-53.7283	0.1671	0.0440	0.0063
-32.1085	-11.3039	-53.8147	0.1354	0.0262	0.0057
-32.6487	-11.1471	-53.8524	0.1273	0.0203	0.0056
-32.6903	-11.0227	-53.8618	0.1272	0.0181	0.0057
-32.7070	-10.8952	-53.8700	0.1275	0.0160	0.0059
-33.0561	-10.5336	-53.9097	0.1232	0.0092	0.0060
-23.8191	-11.4780	-53.3656	-0.3099	0.4053	-0.0400
-23.9111	-11.4531	-53.3720	-0.3091	0.4313	-0.0415
-23.9706	-11.4834	-53.3735	-0.2950	0.4441	-0.0414
-24.0515	-11.5286	-53.3754	-0.2734	0.4594	-0.0411
-24.2352	-11.4388	-53.3905	-0.2664	0.5237	-0.0445
-24.2722	-11.4272	-53.3932	-0.2618	0.5367	-0.0449
-24.2983	-11.4452	-53.3936	-0.2510	0.5399	-0.0445
-24.3188	-11.4579	-53.3940	-0.2428	0.5425	-0.0442
-24.4556	-11.4881	-53.3997	-0.1996	0.5687	-0.0434
-24.8548	-11.6039	-53.4149	-0.0521	0.5908	-0.0366
-24.9381	-11.6184	-53.4187	-0.0225	0.5896	-0.0349
-24.9664	-11.6033	-53.4211	-0.0128	0.5955	-0.0348
-24.9981	-11.5789	-53.4242	-0.0016	0.6047	-0.0347
-25.0218	-11.5778	-53.4256	0.0071	0.6051	-0.0342
-25.0498	-11.6013	-53.4258	0.0169	0.5962	-0.0332
-25.1572	-11.5199	-53.4364	0.0606	0.6216	-0.0322
-25.2084	-11.5032	-53.4401	0.0817	0.6236	-0.0312
-25.2315	-11.4799	-53.4427	0.0932	0.6301	-0.0310
-25.3901	-11.6077	-53.4441	0.1306	0.5649	-0.0252
-25.4188	-11.6050	-53.4459	0.1396	0.5614	-0.0245
-25.4474	-11.6019	-53.4476	0.1485	0.5578	-0.0238
-25.4765	-11.6002	-53.4493	0.1571	0.5534	-0.0231
-25.5073	-11.6027	-53.4508	0.1652	0.5472	-0.0223
-25.5375	-11.6028	-53.4525	0.1734	0.5417	-0.0215
-25.5680	-11.6023	-53.4542	0.1814	0.5360	-0.0208
-25.5975	-11.5985	-53.4561	0.1895	0.5312	-0.0200
-25.6251	-11.5885	-53.4582	0.1983	0.5280	-0.0194
-25.6534	-11.5808	-53.4601	0.2066	0.5238	-0.0187
-25.6883	-11.5884	-53.4616	0.2129	0.5145	-0.0178
-25.7294	-11.6090	-53.4627	0.2171	0.5012	-0.0168
-25.7537	-11.5896	-53.4651	0.2263	0.4998	-0.0162
-25.8377	-11.6241	-53.4678	0.2341	0.4746	-0.0143
-25.8720	-11.6226	-53.4698	0.2401	0.4672	-0.0136
-25.9286	-11.6038	-53.4740	0.2531	0.4572	-0.0123
-26.0341	-11.6574	-53.4767	0.2549	0.4266	-0.0105
-26.0771	-11.6641	-53.4786	0.2583	0.4165	-0.0097
-26.1057	-11.6461	-53.4812	0.2651	0.4122	-0.0091
-26.1731	-11.6253	-53.4862	0.2759	0.3994	-0.0077
-26.2212	-11.6344	-53.4883	0.2777	0.3882	-0.0070
-26.2455	-11.6093	-53.4911	0.2849	0.3847	-0.0064
-26.2731	-11.5885	-53.4938	0.2912	0.3799	-0.0058
-26.3190	-11.5908	-53.4962	0.2932	0.3697	-0.0051
-26.3727	-11.6014	-53.4985	0.2934	0.3578	-0.0044
-26.4345	-11.6190	-53.5009	0.2922	0.3444	-0.0037
-26.4833	-11.6192	-53.5037	0.2936	0.3347	-0.0031
-26.6747	-11.6646	-53.5116	0.2882	0.2988	-0.0013
-26.7356	-11.6693	-53.5147	0.2876	0.2885	-0.0008
-26.7971	-11.6725	-53.5178	0.2869	0.2785	-0.0002
-26.8423	-11.6585	-53.5211	0.2888	0.2712	0.0003
-26.8906	-11.6460	-53.5247	0.2901	0.2636	0.0008
-26.9502	-11.6423	-53.5281	0.2897	0.2546	0.0013
-26.9788	-11.6107	-53.5315	0.2937	0.2497	0.0018
-27.1139	-11.6084	-53.5390	0.2903	0.2307	0.0027
-27.1421	-11.5739	-53.5425	0.2940	0.2257	0.0032
-27.4661	-11.6438	-53.5565	0.2736	0.1902	0.0041
-27.5256	-11.6240	-53.5609	0.2732	0.1833	0.0045
-27.6185	-11.6246	-53.5660	0.2693	0.1743	0.0048
-27.8324	-11.6329	-53.5772	0.2594	0.1560	0.0053
-28.0929	-11.6535	-53.5903	0.2468	0.1376	0.0057
-28.1588	-11.6224	-53.5957	0.2460	0.1318	0.0059
-28.2387	-11.5970	-53.6018	0.2441	0.1257	0.0062
-28.7893	-11.6589	-53.6284	0.2184	0.0997	0.0063
-28.8117	-11.5935	-53.6334	0.2203	0.0962	0.0066
-28.8772	-11.5467	-53.6397	0.2197	0.0916	0.0068
-28.9608	-11.5052	-53.6466	0.2179	0.0867	0.0070
-29.0507	-11.4639	-53.6539	0.2158	0.0817	0.0072
-30.4748	-11.4024	-53.7359	0.1702	0.0458	0.0067
-32.0268	-11.3457	-53.8247	0.1366	0.0275	0.0059
-32.1158	-11.2414	-53.8356	0.1357	0.0250	0.0060
-32.7325	-10.9610	-53.8854	0.1268	0.0169	0.0060
-32.7154	-10.8289	-53.8920	0.1276	0.0149	0.0062
-32.7859	-10.5766	-53.9108	0.1273	0.0106	0.0064
-23.8009	-11.4736	-53.3671	-0.3124	0.4010	-0.0404
-23.8462	-11.4744	-53.3696	-0.3091	0.4125	-0.0409
-23.8928	-11.4641	-53.3728	-0.3080	0.4254	-0.0416
-23.9268	-11.4700	-53.3744	-0.3034	0.4339	-0.0418
-23.9602	-11.4761	-53.3760	-0.2984	0.4421	-0.0420
