-25.4384	-11.5779	-52.8682	0.8130	0.6904	-0.2096
-25.4663	-11.5810	-52.8626	0.8034	0.6591	-0.2054
-25.4783	-11.5704	-52.8610	0.8118	0.6432	-0.2059
-25.4746	-11.5478	-52.8635	0.8374	0.6407	-0.2107
-25.4783	-11.5312	-52.8640	0.8545	0.6310	-0.2132
-25.4968	-11.5255	-52.8608	0.8538	0.6084	-0.2114
-25.8557	-11.5827	-52.7870	0.6757	0.3601	-0.1582
-26.2217	-11.5198	-52.7208	0.5776	0.2066	-0.1276
-26.2555	-11.5032	-52.7156	0.5714	0.1934	-0.1254
-27.7150	-11.5861	-52.4264	0.3113	0.0622	-0.0650
-27.7577	-11.5419	-52.4215	0.3089	0.0563	-0.0641
-28.7178	-11.5190	-52.2370	0.2380	0.0315	-0.0485
-24.2403	-11.3027	-53.1222	-1.4129	0.8538	0.2082
-24.2540	-11.3158	-53.1186	-1.3983	0.9051	0.2015
-24.3605	-11.3345	-53.0966	-1.4430	1.2579	0.1834
-24.3719	-11.3341	-53.0945	-1.4505	1.3011	0.1816
-24.4803	-11.3583	-53.0718	-1.3118	1.7654	0.1196
-24.5204	-11.4096	-53.0602	-1.0210	1.8402	0.0578
-24.5294	-11.4550	-53.0550	-0.8475	1.7637	0.0301
-24.5386	-11.4549	-53.0533	-0.8252	1.7913	0.0238
-24.5758	-11.4166	-53.0490	-0.8374	2.0216	0.0087
-24.6091	-11.4205	-53.0423	-0.7025	2.1133	-0.0243
-24.6161	-11.4164	-53.0413	-0.6862	2.1503	-0.0302
-24.6236	-11.4167	-53.0398	-0.6539	2.1709	-0.0380
-24.6342	-11.4124	-53.0381	-0.6187	2.2190	-0.0485
-24.6585	-11.5240	-53.0250	-0.3185	1.8296	-0.0769
-24.7101	-11.5260	-53.0149	-0.1424	1.8638	-0.1135
-24.7208	-11.5325	-53.0124	-0.1026	1.8451	-0.1198
-24.7297	-11.5328	-53.0106	-0.0723	1.8462	-0.1257
-24.7887	-11.4791	-53.0034	0.1593	2.0346	-0.1846
-24.8746	-11.5481	-52.9816	0.3799	1.6977	-0.2017
-24.8849	-11.5506	-52.9794	0.4043	1.6759	-0.2047
-24.8936	-11.5462	-52.9781	0.4334	1.6742	-0.2102
-24.9016	-11.5397	-52.9771	0.4642	1.6780	-0.2164
-24.9973	-11.5574	-52.9573	0.6394	1.4594	-0.2336
-25.0035	-11.5170	-52.9592	0.7336	1.5161	-0.2561
-25.1548	-11.5312	-52.9291	0.8685	1.1536	-0.2546
-25.1647	-11.5232	-52.9277	0.8900	1.1365	-0.2575
-25.2182	-11.4997	-52.9193	0.9538	1.0308	-0.2617
-25.3817	-11.5779	-52.8819	0.8240	0.7618	-0.2164
-25.4025	-11.5796	-52.8778	0.8190	0.7352	-0.2134
-25.4240	-11.5786	-52.8737	0.8165	0.7083	-0.2109
-25.4487	-11.5796	-52.8689	0.8104	0.6792	-0.2075
-25.4698	-11.5768	-52.8650	0.8086	0.6547	-0.2053
-25.4741	-11.5602	-52.8655	0.8255	0.6455	-0.2079
-25.4717	-11.5389	-52.8675	0.8499	0.6416	-0.2122
-25.4823	-11.5276	-52.8664	0.8586	0.6256	-0.2127
-25.5028	-11.5257	-52.8625	0.8529	0.6022	-0.2098
-25.9600	-11.5555	-52.7724	0.6528	0.3028	-0.1486
-25.9675	-11.5340	-52.7726	0.6588	0.2920	-0.1489
-28.8413	-11.3714	-52.2320	0.2332	0.0215	-0.0465
-24.3078	-11.3444	-53.1084	-1.3757	1.0836	0.1810
-24.3565	-11.3306	-53.1001	-1.4559	1.2371	0.1847
-24.3627	-11.3380	-53.0984	-1.4331	1.2643	0.1782
-24.3720	-11.3396	-53.0965	-1.4317	1.3000	0.1753
-24.4079	-11.3628	-53.0879	-1.3480	1.4429	0.1484
-24.4207	-11.3733	-53.0847	-1.3030	1.4901	0.1362
-24.4372	-11.3810	-53.0809	-1.2631	1.5509	0.1239
-24.5199	-11.4022	-53.0637	-1.0544	1.8523	0.0611
-24.5333	-11.4589	-53.0568	-0.8302	1.7635	0.0249
-24.5706	-11.4198	-53.0527	-0.8488	1.9911	0.0112
-24.6510	-11.5056	-53.0309	-0.3716	1.8817	-0.0718
-24.6591	-11.5081	-53.0292	-0.3402	1.8836	-0.0779
-24.6867	-11.4587	-53.0277	-0.2964	2.1090	-0.1034
-24.7250	-11.5310	-53.0149	-0.0929	1.8523	-0.1228
-24.7340	-11.5242	-53.0138	-0.0635	1.8776	-0.1303
-24.7707	-11.4868	-53.0097	0.0770	2.0159	-0.1677
-24.7781	-11.4943	-53.0077	0.1041	1.9820	-0.1703
-24.8809	-11.5532	-52.9837	0.3873	1.6772	-0.2012
-24.8975	-11.5467	-52.9811	0.4402	1.6693	-0.2107
-24.9062	-11.5431	-52.9797	0.4683	1.6641	-0.2157
-24.9967	-11.5377	-52.9629	0.6754	1.4981	-0.2426
-25.0139	-11.4616	-52.9655	0.8914	1.5890	-0.2907
-25.0415	-11.4573	-52.9605	0.9465	1.5122	-0.2954
-25.1684	-11.5228	-52.9314	0.8926	1.1319	-0.2562
-25.4368	-11.5822	-52.8759	0.8107	0.6955	-0.2074
-25.4617	-11.5829	-52.8711	0.8048	0.6669	-0.2041
-25.4745	-11.5731	-52.8694	0.8124	0.6503	-0.2043
-25.4717	-11.5510	-52.8717	0.8374	0.6472	-0.2088
-25.4746	-11.5339	-52.8724	0.8555	0.6383	-0.2116
-25.4876	-11.5243	-52.8708	0.8614	0.6202	-0.2113
-25.9650	-11.5485	-52.7780	0.6548	0.2989	-0.1475
-26.2270	-11.5536	-52.7278	0.5690	0.2156	-0.1248
-26.4661	-11.5177	-52.6850	0.5123	0.1563	-0.1095
-27.3149	-11.5116	-52.5238	0.3603	0.0727	-0.0742
-28.6590	-11.4530	-52.2723	0.2430	0.0285	-0.0485
-28.6679	-11.3957	-52.2750	0.2433	0.0249	-0.0482
-29.2207	-11.2247	-52.1826	0.2151	0.0111	-0.0418
-24.2537	-11.3046	-53.1249	-1.4251	0.8839	0.2026
-24.2667	-11.3108	-53.1220	-1.4262	0.9264	0.1996
-24.3764	-11.3506	-53.0983	-1.3931	1.3155	0.1637
-24.3801	-11.3589	-53.0970	-1.3639	1.3308	0.1570
-24.5158	-11.4014	-53.0682	-1.0702	1.8326	0.0632
-24.5294	-11.4598	-53.0612	-0.8405	1.7460	0.0263
-24.5373	-11.4602	-53.0597	-0.8203	1.7682	0.0208
-24.5752	-11.4190	-53.0557	-0.8411	2.0046	0.0067
-24.6150	-11.4251	-53.0478	-0.6768	2.1061	-0.0321
-24.6220	-11.4210	-53.0468	-0.6600	2.1425	-0.0381
-24.6786	-11.4422	-53.0345	-0.3622	2.1705	-0.0965
-24.6846	-11.4522	-53.0326	-0.3205	2.1335	-0.1016
-24.7213	-11.5288	-53.0199	-0.1113	1.8585	-0.1203
-24.7300	-11.5301	-53.0182	-0.0808	1.8562	-0.1259
-24.7819	-11.4972	-53.0110	0.1119	1.9696	-0.1709
-24.7978	-11.4787	-53.0094	0.1869	2.0318	-0.1898
-24.8776	-11.5647	-52.9878	0.3604	1.6537	-0.1939
-24.9051	-11.5512	-52.9838	0.4495	1.6481	-0.2103
-24.9138	-11.5517	-52.9821	0.4704	1.6326	-0.2130
-24.9259	-11.5583	-52.9793	0.4888	1.5967	-0.2138
-25.0045	-11.5160	-52.9678	0.7335	1.5229	-0.2544
-25.0201	-11.4841	-52.9673	0.8383	1.5379	-0.2753
-25.1018	-11.5284	-52.9485	0.8348	1.2785	-0.2549
-25.2305	-11.5170	-52.9253	0.9226	1.0100	-0.2510
-25.2190	-11.4691	-52.9311	1.0187	1.0378	-0.2712
-25.4363	-11.5925	-52.8807	0.7998	0.7000	-0.2042
-25.4469	-11.5814	-52.8796	0.8104	0.6855	-0.2051
-25.4681	-11.5788	-52.8759	0.8086	0.6608	-0.2029
-25.4653	-11.5374	-52.8795	0.8557	0.6523	-0.2111
-25.4751	-11.5257	-52.8786	0.8656	0.6368	-0.2118
-25.4943	-11.5207	-52.8753	0.8638	0.6132	-0.2097
-25.7777	-11.5614	-52.8189	0.7184	0.3974	-0.1658
-25.9942	-11.5526	-52.7788	0.6439	0.2895	-0.1435
-25.9990	-11.5294	-52.7797	0.6511	0.2795	-0.1441
-26.2283	-11.5445	-52.7353	0.5718	0.2131	-0.1241
-27.7307	-11.5853	-52.4491	0.3108	0.0616	-0.0633
-27.7966	-11.5451	-52.4398	0.3061	0.0553	-0.0619
-28.6908	-11.5106	-52.2737	0.2404	0.0315	-0.0477
-28.7045	-11.4447	-52.2762	0.2406	0.0274	-0.0475
-24.2835	-11.3167	-53.1216	-1.4295	0.9768	0.1935
-24.3051	-11.3357	-53.1161	-1.3979	1.0600	0.1812
-24.3099	-11.3421	-53.1147	-1.3830	1.0800	0.1769
-24.3396	-11.3887	-53.1057	-1.2594	1.1950	0.1449
-24.4003	-11.3570	-53.0967	-1.3727	1.4029	0.1503
-24.4091	-11.3628	-53.0947	-1.3492	1.4369	0.1432
-24.4164	-11.3778	-53.0922	-1.2900	1.4607	0.1303
-24.4136	-11.3940	-53.0915	-1.2325	1.4424	0.1210
-24.4719	-11.3671	-53.0826	-1.2906	1.6992	0.1123
-24.5343	-11.3790	-53.0701	-1.1228	1.9573	0.0611
-24.5400	-11.3857	-53.0685	-1.0791	1.9647	0.0523
-24.5418	-11.3958	-53.0674	-1.0325	1.9451	0.0451
-24.5430	-11.4077	-53.0663	-0.9832	1.9175	0.0380
-24.5786	-11.4209	-53.0586	-0.8284	2.0048	0.0023
-24.6382	-11.4180	-53.0477	-0.6044	2.1956	-0.0542
-24.6461	-11.4159	-53.0464	-0.5736	2.2253	-0.0622
-24.6513	-11.4172	-53.0454	-0.5465	2.2319	-0.0678
-24.6569	-11.4205	-53.0441	-0.5121	2.2291	-0.0740
-24.6658	-11.4265	-53.0420	-0.4570	2.2195	-0.0836
-24.6703	-11.4314	-53.0408	-0.4261	2.2047	-0.0883
-24.6944	-11.5065	-53.0306	-0.2266	1.9219	-0.1041
-24.7275	-11.5200	-53.0234	-0.0980	1.8908	-0.1257
-24.7433	-11.5313	-53.0196	-0.0393	1.8535	-0.1339
-24.7786	-11.4845	-53.0166	0.0985	2.0228	-0.1726
-24.7878	-11.4858	-53.0148	0.1355	2.0118	-0.1787
-24.8033	-11.4892	-53.0116	0.1951	1.9856	-0.1878
-24.8730	-11.5650	-52.9929	0.3444	1.6604	-0.1910
-24.9045	-11.5713	-52.9866	0.4159	1.6015	-0.1998
-24.9129	-11.5648	-52.9855	0.4451	1.6046	-0.2055
-24.9192	-11.5514	-52.9853	0.4803	1.6265	-0.2138
-24.9486	-11.5792	-52.9777	0.5026	1.5155	-0.2095
-25.1513	-11.5351	-52.9434	0.8574	1.1685	-0.2493
-25.1579	-11.5275	-52.9428	0.8767	1.1589	-0.2522
-25.4611	-11.5643	-52.8835	0.8271	0.6671	-0.2054
-25.4743	-11.5552	-52.8817	0.8336	0.6494	-0.2052
-25.4750	-11.5363	-52.8830	0.8544	0.6427	-0.2086
-25.4784	-11.5199	-52.8836	0.8717	0.6328	-0.2111
-25.8540	-11.5694	-52.8098	0.6868	0.3591	-0.1557
-25.8728	-11.5583	-52.8071	0.6855	0.3456	-0.1544
-26.0169	-11.5266	-52.7827	0.6466	0.2726	-0.1415
-27.8386	-11.5308	-52.4426	0.3030	0.0527	-0.0606
-28.7119	-11.4856	-52.2830	0.2398	0.0298	-0.0470
-28.9141	-11.2974	-52.2596	0.2307	0.0168	-0.0443
-33.5363	-10.3187	-51.4722	0.1096	-0.0084	-0.0198
-33.5750	-10.1666	-51.4766	0.1089	-0.0102	-0.0195
-24.2098	-11.3291	-53.1368	-1.3125	0.8049	0.1820
-24.3103	-11.3253	-53.1184	-1.4309	1.0631	0.1843
-24.3126	-11.3335	-53.1173	-1.4084	1.0779	0.1790
-24.3314	-11.3449	-53.1130	-1.3880	1.1466	0.1699
-24.3860	-11.3531	-53.1023	-1.3838	1.3426	0.1541
-24.3968	-11.3557	-53.1001	-1.3750	1.3845	0.1493
-24.4700	-11.3601	-53.0862	-1.3222	1.6921	0.1159
-24.4833	-11.3789	-53.0824	-1.2237	1.7269	0.0949
-24.5275	-11.3712	-53.0748	-1.1747	1.9384	0.0697
-24.5150	-11.4504	-53.0711	-0.9050	1.7133	0.0368
-24.5498	-11.4198	-53.0670	-0.9215	1.9026	0.0254
-24.5648	-11.4268	-53.0637	-0.8545	1.9338	0.0106
-24.5751	-11.4247	-53.0619	-0.8291	1.9743	0.0028
-24.5803	-11.4867	-53.0563	-0.6422	1.8009	-0.0186
-24.6495	-11.4188	-53.0486	-0.5549	2.2137	-0.0663
-24.6536	-11.4208	-53.0478	-0.5315	2.2139	-0.0707
-24.8013	-11.4889	-53.0153	0.1819	1.9871	-0.1856
-24.8086	-11.4901	-53.0139	0.2093	1.9759	-0.1898
-24.8807	-11.5669	-52.9947	0.3580	1.6455	-0.1921
-24.8894	-11.5729	-52.9926	0.3729	1.6187	-0.1928
-24.9012	-11.5740	-52.9905	0.4003	1.6002	-0.1965
-24.9112	-11.5733	-52.9887	0.4251	1.5876	-0.2001
-24.9647	-11.5465	-52.9808	0.5872	1.5552	-0.2276
-25.0419	-11.4639	-52.9730	0.9209	1.5143	-0.2863
-25.0507	-11.4605	-52.9716	0.9425	1.4928	-0.2886
-25.1467	-11.5179	-52.9495	0.8885	1.1917	-0.2556
-25.1615	-11.5214	-52.9465	0.8895	1.1574	-0.2531
-25.1751	-11.5205	-52.9441	0.8980	1.1285	-0.2525
-25.3624	-11.5820	-52.9048	0.8215	0.7969	-0.2129
-25.4507	-11.5846	-52.8883	0.8064	0.6857	-0.2017
-25.4643	-11.5757	-52.8865	0.8134	0.6682	-0.2016
-25.4732	-11.5629	-52.8859	0.8253	0.6549	-0.2028
-25.4756	-11.5452	-52.8868	0.8444	0.6470	-0.2057
-25.4760	-11.5264	-52.8881	0.8654	0.6401	-0.2090
-25.4828	-11.5101	-52.8881	0.8812	0.6260	-0.2109
-25.5710	-11.5373	-52.8697	0.8180	0.5455	-0.1931
-26.0378	-11.5484	-52.7827	0.6320	0.2734	-0.1378
-26.0603	-11.5356	-52.7795	0.6289	0.2612	-0.1363
-26.7293	-11.5608	-52.6540	0.4504	0.1294	-0.0932
-27.7721	-11.5513	-52.4621	0.3088	0.0571	-0.0615
-33.5007	-10.1231	-51.5133	0.1098	-0.0109	-0.0195
-24.3013	-11.3325	-53.1219	-1.3980	1.0398	0.1772
-24.3990	-11.3574	-53.1021	-1.3662	1.3883	0.1446
-24.4721	-11.3727	-53.0876	-1.2636	1.6807	0.1032
-24.4761	-11.3820	-53.0862	-1.2199	1.6862	0.0948
-24.5242	-11.3677	-53.0784	-1.1979	1.9240	0.0725
-24.5055	-11.4722	-53.0739	-0.8601	1.6358	0.0325
-24.5654	-11.4291	-53.0662	-0.8466	1.9227	0.0081
-24.5769	-11.4243	-53.0645	-0.8266	1.9753	0.0004
-24.5793	-11.4788	-53.0599	-0.6659	1.8159	-0.0170
-24.6439	-11.4678	-53.0489	-0.4762	1.9920	-0.0653
-24.7376	-11.4899	-53.0301	-0.0794	2.0016	-0.1389
-24.7447	-11.4910	-53.0287	-0.0507	1.9982	-0.1439
-24.7550	-11.4870	-53.0271	-0.0092	2.0144	-0.1528
-24.8624	-11.5553	-53.0023	0.3176	1.6995	-0.1886
-24.8719	-11.5614	-53.0001	0.3371	1.6711	-0.1900
-24.8826	-11.5712	-52.9974	0.3537	1.6320	-0.1900
-24.8953	-11.5772	-52.9946	0.3782	1.6004	-0.1921
-24.9039	-11.5760	-52.9931	0.4003	1.5917	-0.1955
-24.9152	-11.5697	-52.9916	0.4355	1.5903	-0.2018
-24.9394	-11.5568	-52.9882	0.5108	1.5807	-0.2149
-24.9913	-11.5535	-52.9789	0.6224	1.4905	-0.2285
-25.0226	-11.5230	-52.9756	0.7392	1.4761	-0.2487
-25.1531	-11.4829	-52.9548	0.9689	1.1990	-0.2696
-25.3876	-11.5803	-52.9044	0.8212	0.7649	-0.2092
-25.4114	-11.5847	-52.8998	0.8127	0.7350	-0.2053
-25.4390	-11.5889	-52.8944	0.8034	0.7022	-0.2011
-25.4588	-11.5882	-52.8909	0.8005	0.6790	-0.1988
-25.4700	-11.5745	-52.8899	0.8132	0.6634	-0.1999
-25.4742	-11.5580	-52.8904	0.8304	0.6543	-0.2024
-25.4781	-11.5415	-52.8909	0.8477	0.6449	-0.2048
-25.4808	-11.5245	-52.8917	0.8659	0.6358	-0.2074
-26.7697	-11.5614	-52.6531	0.4431	0.1251	-0.0907
-27.7361	-11.5814	-52.4746	0.3114	0.0615	-0.0617
-27.8021	-11.5412	-52.4658	0.3066	0.0552	-0.0604
-27.8346	-11.4936	-52.4635	0.3052	0.0496	-0.0597
-28.7850	-11.4488	-52.2929	0.2366	0.0268	-0.0454
-28.8104	-11.3826	-52.2933	0.2360	0.0227	-0.0450
-28.8564	-11.3170	-52.2899	0.2341	0.0185	-0.0443
-33.5390	-10.2234	-51.5168	0.1096	-0.0096	-0.0193
-24.3043	-11.3225	-53.1249	-1.4281	1.0352	0.1801
-24.3969	-11.3536	-53.1058	-1.3795	1.3750	0.1451
-24.4027	-11.3567	-53.1045	-1.3682	1.3974	0.1413
-24.4667	-11.3633	-53.0924	-1.3102	1.6613	0.1104
-24.4714	-11.3683	-53.0912	-1.2837	1.6766	0.1044
-24.5128	-11.3638	-53.0841	-1.2415	1.8713	0.0817
-24.4964	-11.4594	-53.0798	-0.9162	1.6287	0.0412
-24.5084	-11.4580	-53.0777	-0.8977	1.6673	0.0349
-24.5169	-11.4580	-53.0762	-0.8806	1.6928	0.0298
-24.5412	-11.4667	-53.0711	-0.8012	1.7442	0.0114
-24.5848	-11.4747	-53.0627	-0.6636	1.8368	-0.0208
-24.6395	-11.4672	-53.0534	-0.4989	1.9822	-0.0619
-24.6473	-11.4691	-53.0519	-0.4663	1.9899	-0.0684
-24.6651	-11.4717	-53.0484	-0.3934	2.0093	-0.0831
-24.7345	-11.4725	-53.0359	-0.1049	2.0716	-0.1403
-24.7436	-11.4688	-53.0345	-0.0671	2.0901	-0.1486
-24.7504	-11.4659	-53.0335	-0.0374	2.1037	-0.1550
-24.7592	-11.4639	-53.0322	0.0014	2.1124	-0.1628
-24.8778	-11.5633	-53.0031	0.3464	1.6601	-0.1906
-24.8871	-11.5662	-53.0012	0.3670	1.6405	-0.1928
-24.8984	-11.5665	-52.9991	0.3954	1.6245	-0.1967
-24.9072	-11.5662	-52.9977	0.4173	1.6128	-0.1998
-24.9189	-11.5669	-52.9955	0.4443	1.5935	-0.2032
-24.9279	-11.5673	-52.9938	0.4647	1.5786	-0.2058
-24.9371	-11.5590	-52.9928	0.4983	1.5821	-0.2121
-24.9597	-11.5679	-52.9880	0.5325	1.5242	-0.2139
-25.0136	-11.5712	-52.9781	0.6256	1.4198	-0.2227
-25.1273	-11.4910	-52.9639	0.9337	1.2621	-0.2663
-25.1315	-11.4816	-52.9639	0.9595	1.2580	-0.2707
-25.1188	-11.4295	-52.9702	1.0918	1.3241	-0.2998
-25.3770	-11.5851	-52.9116	0.8164	0.7819	-0.2081
-25.3975	-11.5817	-52.9081	0.8188	0.7547	-0.2064
-25.4177	-11.5826	-52.9044	0.8150	0.7291	-0.2038
-25.4863	-11.6036	-52.8905	0.7793	0.6540	-0.1915
-25.4809	-11.5758	-52.8936	0.8100	0.6537	-0.1970
-25.4766	-11.5526	-52.8962	0.8367	0.6522	-0.2018
-25.4793	-11.5327	-52.8972	0.8582	0.6428	-0.2049
-25.4815	-11.5179	-52.8980	0.8742	0.6349	-0.2072
-25.4862	-11.5026	-52.8983	0.8897	0.6232	-0.2091
-25.7956	-11.5810	-52.8364	0.7032	0.3987	-0.1580
-26.0341	-11.5307	-52.7972	0.6412	0.2703	-0.1369
-26.2189	-11.5300	-52.7638	0.5810	0.2136	-0.1216
-27.8021	-11.5250	-52.4782	0.3076	0.0538	-0.0598
-28.7372	-11.4917	-52.3116	0.2390	0.0299	-0.0455
-28.7428	-11.4244	-52.3157	0.2397	0.0259	-0.0454
-33.5648	-10.7769	-51.4938	0.1100	-0.0027	-0.0197
-33.4637	-10.6339	-51.5231	0.1112	-0.0046	-0.0198
-33.4306	-10.3432	-51.5520	0.1113	-0.0083	-0.0195
-33.5365	-10.1871	-51.5449	0.1097	-0.0101	-0.0191
-24.3013	-11.3418	-53.1282	-1.3698	1.0388	0.1655
-24.3046	-11.3513	-53.1268	-1.3460	1.0560	0.1599
-24.3710	-11.3474	-53.1153	-1.3975	1.2691	0.1526
-24.3818	-11.3476	-53.1134	-1.4007	1.3091	0.1501
-24.3969	-11.3549	-53.1101	-1.3765	1.3676	0.1413
-24.5107	-11.3626	-53.0893	-1.2565	1.8552	0.0819
-24.4995	-11.4431	-53.0851	-0.9656	1.6625	0.0447
-24.5055	-11.4500	-53.0836	-0.9329	1.6686	0.0383
-24.5125	-11.4550	-53.0819	-0.9038	1.6805	0.0322
-24.5201	-11.4591	-53.0802	-0.8762	1.6952	0.0261
-24.5433	-11.4528	-53.0766	-0.8422	1.7792	0.0135
-24.5731	-11.4311	-53.0729	-0.8279	1.9308	-0.0008
-24.6393	-11.4588	-53.0590	-0.5250	2.0107	-0.0613
-24.6447	-11.4612	-53.0579	-0.4994	2.0126	-0.0660
-24.7436	-11.5190	-53.0359	-0.0621	1.8917	-0.1350
-24.8721	-11.5634	-53.0097	0.3261	1.6705	-0.1874
-24.8818	-11.5755	-53.0070	0.3382	1.6271	-0.1862
-24.8935	-11.5768	-53.0048	0.3660	1.6091	-0.1898
-24.9028	-11.5734	-53.0034	0.3930	1.6051	-0.1943
-24.9126	-11.5769	-53.0015	0.4118	1.5831	-0.1960
-24.9230	-11.5771	-52.9996	0.4356	1.5678	-0.1991
-24.9333	-11.5718	-52.9982	0.4662	1.5640	-0.2043
-24.9403	-11.5653	-52.9974	0.4917	1.5670	-0.2091
-24.9506	-11.5607	-52.9959	0.5217	1.5596	-0.2138
-24.9607	-11.5634	-52.9939	0.5387	1.5362	-0.2151
-24.9737	-11.5659	-52.9914	0.5608	1.5079	-0.2168
-24.9828	-11.5611	-52.9903	0.5866	1.5003	-0.2209
-24.9921	-11.5572	-52.9889	0.6112	1.4899	-0.2245
-25.0010	-11.5555	-52.9875	0.6305	1.4757	-0.2268
-25.0135	-11.5552	-52.9852	0.6527	1.4513	-0.2289
-25.0207	-11.5495	-52.9844	0.6757	1.4460	-0.2326
-25.4795	-11.5506	-52.9028	0.8396	0.6509	-0.2003
-25.4801	-11.5318	-52.9042	0.8606	0.6441	-0.2035
-25.4818	-11.5143	-52.9052	0.8800	0.6356	-0.2063
-25.4867	-11.4970	-52.9057	0.8978	0.6227	-0.2085
-25.6559	-11.4957	-52.8757	0.8194	0.4597	-0.1819
-27.7651	-11.5637	-52.4946	0.3102	0.0589	-0.0599
-27.8019	-11.5177	-52.4916	0.3084	0.0531	-0.0591
-28.7994	-11.4209	-52.3211	0.2367	0.0250	-0.0442
-28.8871	-11.3600	-52.3101	0.2326	0.0206	-0.0431
-29.0092	-11.2989	-52.2931	0.2266	0.0163	-0.0417
-33.5081	-10.6105	-51.5441	0.1107	-0.0049	-0.0194
-33.5214	-10.4626	-51.5538	0.1104	-0.0067	-0.0192
-24.3010	-11.3428	-53.1323	-1.3670	1.0332	0.1617
-24.3723	-11.3472	-53.1194	-1.3997	1.2671	0.1493
-24.3943	-11.3650	-53.1142	-1.3411	1.3513	0.1324
-24.4885	-11.4509	-53.0910	-0.9650	1.6083	0.0458
-24.4915	-11.4632	-53.0896	-0.9228	1.5972	0.0393
-24.5008	-11.4673	-53.0877	-0.8948	1.6171	0.0327
-24.5113	-11.4640	-53.0861	-0.8846	1.6543	0.0280
-24.5218	-11.4627	-53.0843	-0.8672	1.6876	0.0224
-24.5747	-11.4906	-53.0729	-0.6666	1.7612	-0.0189
-24.6640	-11.4634	-53.0594	-0.4287	2.0371	-0.0823
-24.7694	-11.3857	-53.0470	0.0425	2.5360	-0.2042
-24.8068	-11.5060	-53.0311	0.1654	1.9227	-0.1784
-24.8868	-11.5793	-53.0114	0.3420	1.6149	-0.1857
-24.8977	-11.5767	-53.0096	0.3720	1.6077	-0.1904
-24.9082	-11.5781	-53.0078	0.3958	1.5903	-0.1932
-24.9178	-11.5806	-53.0059	0.4150	1.5711	-0.1951
-24.9275	-11.5829	-53.0040	0.4338	1.5519	-0.1969
-24.9585	-11.5759	-52.9991	0.5105	1.5186	-0.2079
-24.9700	-11.5738	-52.9972	0.5370	1.5033	-0.2114
-24.9795	-11.5701	-52.9958	0.5617	1.4938	-0.2150
-24.9886	-11.5729	-52.9941	0.5741	1.4723	-0.2155
-25.0137	-11.5499	-52.9915	0.6609	1.4648	-0.2302
-25.0650	-11.5624	-52.9815	0.7129	1.3411	-0.2298
-25.0939	-11.4670	-52.9839	0.9669	1.3820	-0.2777
-25.3371	-11.5712	-52.9332	0.8394	0.8438	-0.2134
-25.3926	-11.5856	-52.9223	0.8167	0.7673	-0.2035
-25.4800	-11.5420	-52.9104	0.8507	0.6502	-0.2003
-25.4840	-11.5284	-52.9108	0.8648	0.6410	-0.2021
-25.4848	-11.5103	-52.9120	0.8852	0.6331	-0.2051
-25.4861	-11.4930	-52.9132	0.9046	0.6242	-0.2078
-27.1881	-11.5672	-52.6080	0.3771	0.0891	-0.0733
-27.7803	-11.5541	-52.5050	0.3096	0.0575	-0.0589
-27.8286	-11.5095	-52.5000	0.3066	0.0515	-0.0580
-28.7440	-11.4663	-52.3422	0.2396	0.0284	-0.0444
-28.7355	-11.3972	-52.3491	0.2411	0.0245	-0.0443
-33.5802	-10.4227	-51.5730	0.1098	-0.0071	-0.0188
-24.3788	-11.3456	-53.1212	-1.4077	1.2857	0.1455
-24.3961	-11.3541	-53.1175	-1.3812	1.3527	0.1357
-24.4027	-11.3594	-53.1159	-1.3618	1.3781	0.1303
-24.4812	-11.4538	-53.0949	-0.9694	1.5772	0.0460
-24.4867	-11.4572	-53.0937	-0.9506	1.5887	0.0418
-24.4983	-11.4570	-53.0917	-0.9315	1.6242	0.0357
-24.5074	-11.4610	-53.0898	-0.9029	1.6444	0.0291
-24.5165	-11.4626	-53.0881	-0.8807	1.6685	0.0233
-24.5462	-11.4440	-53.0844	-0.8711	1.8003	0.0113
-24.5570	-11.4402	-53.0828	-0.8550	1.8439	0.0051
-24.5711	-11.4334	-53.0808	-0.8370	1.9078	-0.0030
-24.7060	-11.4334	-53.0574	-0.2943	2.2296	-0.1231
-24.8917	-11.5741	-53.0141	0.3569	1.6227	-0.1893
-24.9035	-11.5815	-53.0115	0.3773	1.5895	-0.1903
-24.9126	-11.5821	-53.0099	0.3979	1.5758	-0.1928
-24.9230	-11.5771	-53.0085	0.4286	1.5727	-0.1979
-24.9340	-11.5790	-53.0064	0.4507	1.5522	-0.2002
-24.9526	-11.5708	-53.0038	0.5033	1.5405	-0.2084
-24.9598	-11.5651	-53.0030	0.5279	1.5403	-0.2127
-24.9861	-11.5816	-52.9972	0.5523	1.4623	-0.2108
-25.0066	-11.5503	-52.9961	0.6454	1.4807	-0.2285
-25.3476	-11.5938	-52.9334	0.8075	0.8305	-0.2058
-25.3610	-11.5872	-52.9316	0.8165	0.8118	-0.2059
-25.3766	-11.5852	-52.9290	0.8186	0.7903	-0.2046
-25.3985	-11.5832	-52.9254	0.8192	0.7611	-0.2024
-25.4187	-11.5843	-52.9218	0.8153	0.7355	-0.1997
-25.4871	-11.5824	-52.9101	0.8045	0.6549	-0.1915
-25.4775	-11.5354	-52.9155	0.8595	0.6525	-0.2009
-25.4821	-11.5175	-52.9161	0.8785	0.6408	-0.2033
-25.4819	-11.4989	-52.9175	0.9001	0.6334	-0.2065
-25.4765	-11.4773	-52.9202	0.9282	0.6301	-0.2111
-27.7852	-11.5392	-52.5138	0.3099	0.0560	-0.0583
-28.7175	-11.5115	-52.3537	0.2407	0.0315	-0.0444
-28.7253	-11.4445	-52.3576	0.2413	0.0274	-0.0441
-28.7321	-11.3777	-52.3616	0.2418	0.0234	-0.0439
-28.8044	-11.3162	-52.3539	0.2382	0.0190	-0.0430
-24.4155	-11.3775	-53.1144	-1.2924	1.4197	0.1113
-24.4720	-11.4553	-53.0985	-0.9792	1.5431	0.0474
-24.4841	-11.4570	-53.0963	-0.9561	1.5774	0.0407
-24.4947	-11.4541	-53.0947	-0.9478	1.6147	0.0363
-24.5037	-11.4558	-53.0930	-0.9266	1.6392	0.0307
-24.5152	-11.4576	-53.0909	-0.8994	1.6707	0.0235
-24.5579	-11.4278	-53.0859	-0.8950	1.8765	0.0065
-24.5646	-11.4320	-53.0844	-0.8625	1.8869	0.0000
-24.5718	-11.4989	-53.0779	-0.6602	1.7264	-0.0223
-24.6307	-11.4104	-53.0747	-0.6999	2.1726	-0.0507
-24.6450	-11.4199	-53.0715	-0.6115	2.1719	-0.0659
-24.6933	-11.3847	-53.0660	-0.4526	2.4687	-0.1168
-24.6945	-11.3909	-53.0653	-0.4321	2.4344	-0.1177
-24.7150	-11.4390	-53.0580	-0.2481	2.2094	-0.1317
-24.7716	-11.3852	-53.0525	0.0427	2.5357	-0.2077
-24.8694	-11.5373	-53.0237	0.3361	1.7526	-0.1965
-24.8810	-11.5480	-53.0209	0.3568	1.7065	-0.1964
-24.9052	-11.5738	-53.0146	0.3880	1.6064	-0.1939
-24.9175	-11.5767	-53.0123	0.4138	1.5825	-0.1965
-24.9278	-11.5810	-53.0102	0.4315	1.5580	-0.1976
-24.9380	-11.5799	-53.0085	0.4556	1.5452	-0.2007
-24.9483	-11.5787	-53.0069	0.4795	1.5319	-0.2038
-24.9591	-11.5792	-53.0050	0.5014	1.5135	-0.2062
-24.9786	-11.5688	-53.0025	0.5571	1.5011	-0.2148
-24.9861	-11.5636	-53.0016	0.5805	1.4973	-0.2185
-25.2769	-11.5655	-52.9515	0.8433	0.9425	-0.2199
-25.3548	-11.5889	-52.9362	0.8142	0.8221	-0.2054
-25.3656	-11.5848	-52.9346	0.8195	0.8069	-0.2051
-25.3868	-11.5854	-52.9309	0.8176	0.7783	-0.2025
-25.4090	-11.5860	-52.9271	0.8146	0.7496	-0.1997
-25.4335	-11.5880	-52.9228	0.8088	0.7194	-0.1963
-25.5035	-11.5884	-52.9107	0.7944	0.6401	-0.1876
-25.4833	-11.5306	-52.9187	0.8634	0.6457	-0.1999
-25.4827	-11.5114	-52.9203	0.8858	0.6393	-0.2033
-25.4861	-11.4752	-52.9226	0.9266	0.6191	-0.2087
-25.9460	-11.5848	-52.8348	0.6537	0.3273	-0.1385
-25.9568	-11.5649	-52.8346	0.6587	0.3158	-0.1385
-27.7423	-11.5582	-52.5277	0.3136	0.0595	-0.0587
-27.8120	-11.5181	-52.5190	0.3084	0.0531	-0.0573
-28.7495	-11.4825	-52.3604	0.2395	0.0294	-0.0436
-28.7461	-11.4139	-52.3664	0.2407	0.0254	-0.0435
-28.7779	-11.3487	-52.3661	0.2396	0.0212	-0.0429
-24.4150	-11.3948	-53.1152	-1.2311	1.4077	0.0985
-24.4732	-11.4492	-53.1010	-0.9970	1.5517	0.0470
-24.4839	-11.4489	-53.0992	-0.9824	1.5855	0.0418
-24.4933	-11.4524	-53.0973	-0.9566	1.6095	0.0354
-24.5034	-11.4548	-53.0954	-0.9318	1.6363	0.0291
-24.5105	-11.4599	-53.0939	-0.9033	1.6482	0.0232
-24.5679	-11.4262	-53.0867	-0.8748	1.9101	-0.0025
-24.5685	-11.4991	-53.0809	-0.6703	1.7152	-0.0220
-24.6464	-11.4135	-53.0744	-0.6273	2.1996	-0.0679
-24.6874	-11.3750	-53.0705	-0.5184	2.5087	-0.1112
-24.7161	-11.4318	-53.0612	-0.2567	2.2438	-0.1348
-24.7243	-11.4225	-53.0605	-0.2248	2.2993	-0.1447
-24.7570	-11.3941	-53.0572	-0.0574	2.4798	-0.1877
-24.7701	-11.3901	-53.0553	0.0244	2.5042	-0.2036
-24.8406	-11.5254	-53.0326	0.2548	1.8245	-0.1888
-24.8463	-11.5194	-53.0321	0.2796	1.8379	-0.1941
-24.8554	-11.5199	-53.0305	0.3088	1.8257	-0.1982
-24.8922	-11.5761	-53.0198	0.3498	1.6186	-0.1887
-24.9050	-11.5760	-53.0176	0.3815	1.6023	-0.1928
-24.9149	-11.5796	-53.0157	0.4005	1.5805	-0.1943
-24.9254	-11.5797	-53.0139	0.4245	1.5655	-0.1972
-24.9356	-11.5787	-53.0122	0.4489	1.5527	-0.2003
-24.9542	-11.5664	-53.0100	0.5083	1.5500	-0.2103
-24.9609	-11.5630	-53.0092	0.5280	1.5459	-0.2133
-25.0009	-11.5545	-53.0031	0.6220	1.4884	-0.2247
-25.0097	-11.5494	-53.0020	0.6476	1.4797	-0.2284
-25.2715	-11.5636	-52.9564	0.8453	0.9542	-0.2202
-25.3513	-11.5951	-52.9404	0.8056	0.8289	-0.2035
-25.3655	-11.5891	-52.9384	0.8137	0.8093	-0.2033
-25.3832	-11.5863	-52.9356	0.8167	0.7852	-0.2019
-25.4004	-11.5852	-52.9328	0.8167	0.7625	-0.2001
-25.4212	-11.5841	-52.9293	0.8155	0.7358	-0.1977
-25.4436	-11.5838	-52.9255	0.8123	0.7083	-0.1950
-25.4555	-11.5713	-52.9245	0.8247	0.6918	-0.1958
-25.4868	-11.5211	-52.9233	0.8736	0.6401	-0.2000
-25.4822	-11.4969	-52.9260	0.9036	0.6357	-0.2047
-25.4800	-11.4775	-52.9279	0.9277	0.6294	-0.2083
-25.4864	-11.4642	-52.9279	0.9403	0.6149	-0.2093
-25.7998	-11.5620	-52.8668	0.7175	0.3949	-0.1538
-26.0268	-11.5600	-52.8284	0.6375	0.2866	-0.1315
-26.7683	-11.5203	-52.7053	0.4517	0.1189	-0.0864
-27.2444	-11.5627	-52.6208	0.3708	0.0852	-0.0700
-27.7901	-11.5356	-52.5302	0.3102	0.0556	-0.0573
-27.8352	-11.4905	-52.5261	0.3075	0.0498	-0.0563
-28.6711	-11.5006	-52.3830	0.2440	0.0317	-0.0441
-28.7552	-11.4431	-52.3732	0.2400	0.0271	-0.0430
-28.8197	-11.3814	-52.3671	0.2370	0.0227	-0.0422
-24.3236	-11.3523	-53.1371	-1.3527	1.0936	0.1411
-24.3781	-11.3445	-53.1286	-1.4086	1.2695	0.1365
-24.3933	-11.3538	-53.1253	-1.3797	1.3282	0.1269
-24.4112	-11.3979	-53.1188	-1.2228	1.3874	0.0956
-24.4932	-11.4499	-53.1009	-0.9670	1.6074	0.0346
-24.5007	-11.4521	-53.0994	-0.9475	1.6272	0.0297
-24.5132	-11.4523	-53.0973	-0.9241	1.6655	0.0227
-24.5493	-11.4540	-53.0911	-0.8405	1.7715	0.0001
-24.5679	-11.4948	-53.0847	-0.6860	1.7200	-0.0219
-24.5769	-11.4961	-53.0831	-0.6601	1.7374	-0.0277
-24.6425	-11.4646	-53.0746	-0.5269	1.9791	-0.0696
-24.7084	-11.4265	-53.0666	-0.3106	2.2582	-0.1285
-24.7377	-11.4062	-53.0633	-0.1761	2.3977	-0.1624
-24.7733	-11.3899	-53.0587	0.0331	2.5039	-0.2063
-24.8602	-11.5697	-53.0297	0.2674	1.6729	-0.1792
-24.8723	-11.5755	-53.0272	0.2945	1.6447	-0.1815
-24.8892	-11.5730	-53.0246	0.3409	1.6320	-0.1883
-24.9001	-11.5765	-53.0225	0.3642	1.6095	-0.1905
-24.9120	-11.5838	-53.0199	0.3843	1.5766	-0.1912
-24.9222	-11.5882	-53.0178	0.4023	1.5528	-0.1923
-24.9348	-11.5856	-53.0159	0.4337	1.5410	-0.1967
-24.9435	-11.5788	-53.0150	0.4622	1.5431	-0.2017
-24.9504	-11.5671	-53.0147	0.4947	1.5575	-0.2083
-24.9974	-11.5771	-53.0061	0.5722	1.4570	-0.2133
-25.0010	-11.5583	-53.0070	0.6116	1.4844	-0.2222
-25.0080	-11.5488	-53.0066	0.6424	1.4880	-0.2276
-25.0184	-11.5505	-53.0047	0.6573	1.4638	-0.2282
-25.0931	-11.5160	-52.9950	0.8371	1.3467	-0.2491
-25.2654	-11.5654	-52.9621	0.8408	0.9675	-0.2193
-25.3615	-11.5895	-52.9440	0.8135	0.8175	-0.2027
-25.3724	-11.5854	-52.9425	0.8188	0.8024	-0.2023
-25.3928	-11.5824	-52.9394	0.8213	0.7748	-0.2005
-25.4151	-11.5857	-52.9354	0.8147	0.7463	-0.1971
-25.4424	-11.5874	-52.9306	0.8088	0.7128	-0.1934
-25.4630	-11.5876	-52.9272	0.8049	0.6887	-0.1909
-25.4061	-11.4807	-52.9453	0.9579	0.7320	-0.2201
-25.4863	-11.4886	-52.9313	0.9126	0.6296	-0.2042
-25.4847	-11.4698	-52.9331	0.9357	0.6224	-0.2076
-25.8165	-11.5578	-52.8702	0.7147	0.3849	-0.1512
-26.2789	-11.5375	-52.7941	0.5664	0.2041	-0.1117
-27.2734	-11.5450	-52.6263	0.3686	0.0812	-0.0686
-27.7661	-11.5550	-52.5425	0.3121	0.0585	-0.0572
-27.7853	-11.5062	-52.5432	0.3121	0.0531	-0.0568
-28.7133	-11.4689	-52.3903	0.2423	0.0292	-0.0431
-29.0274	-11.2897	-52.3518	0.2268	0.0158	-0.0394
-24.3018	-11.3626	-53.1430	-1.3080	1.0331	0.1352
-24.3729	-11.3456	-53.1325	-1.4016	1.2454	0.1337
-24.3786	-11.3522	-53.1310	-1.3812	1.2684	0.1285
-24.3903	-11.3531	-53.1290	-1.3813	1.3108	0.1251
-24.3962	-11.3593	-53.1275	-1.3599	1.3335	0.1197
-24.4641	-11.4551	-53.1086	-0.9956	1.5050	0.0449
-24.5095	-11.4364	-53.1025	-0.9847	1.6777	0.0292
-24.5649	-11.4928	-53.0888	-0.7024	1.7133	-0.0209
-24.5746	-11.4955	-53.0870	-0.6716	1.7293	-0.0274
-24.6821	-11.3647	-53.0797	-0.6002	2.5459	-0.1052
-24.7171	-11.4131	-53.0700	-0.2927	2.3361	-0.1396
-24.7317	-11.4075	-53.0680	-0.2189	2.3830	-0.1557
-24.7401	-11.3991	-53.0673	-0.1780	2.4388	-0.1670
-24.7461	-11.3954	-53.0666	-0.1448	2.4648	-0.1746
-24.9300	-11.5823	-53.0211	0.4234	1.5576	-0.1962
-24.9397	-11.5700	-53.0205	0.4624	1.5709	-0.2038
-24.9459	-11.5607	-53.0202	0.4905	1.5820	-0.2094
-24.9704	-11.5796	-53.0146	0.5134	1.5012	-0.2067
-24.9830	-11.5802	-53.0125	0.5370	1.4790	-0.2088
-24.9943	-11.5768	-53.0109	0.5636	1.4659	-0.2122
-25.0020	-11.5682	-53.0103	0.5924	1.4676	-0.2171
-25.0084	-11.5569	-53.0102	0.6245	1.4760	-0.2231
-25.0348	-11.5686	-53.0048	0.6468	1.4051	-0.2211
-25.0822	-11.5446	-52.9990	0.7599	1.3421	-0.2349
-25.2404	-11.5587	-52.9716	0.8453	1.0162	-0.2228
-25.2557	-11.5598	-52.9690	0.8476	0.9889	-0.2209
-25.3485	-11.5849	-52.9516	0.8198	0.8387	-0.2042
-25.3681	-11.5846	-52.9483	0.8201	0.8111	-0.2020
-25.3880	-11.5866	-52.9449	0.8165	0.7841	-0.1992
-25.4101	-11.5874	-52.9411	0.8136	0.7553	-0.1964
-25.4323	-11.5848	-52.9376	0.8140	0.7272	-0.1942
-25.4535	-11.5859	-52.9340	0.8092	0.7018	-0.1914
-25.4762	-11.5848	-52.9304	0.8061	0.6754	-0.1887
-25.4947	-11.5824	-52.9275	0.8046	0.6543	-0.1867
-25.4841	-11.4772	-52.9378	0.9284	0.6294	-0.2053
-25.4905	-11.4639	-52.9378	0.9410	0.6149	-0.2063
-26.4156	-11.5403	-52.7781	0.5294	0.1760	-0.1023
-27.1989	-11.5463	-52.6473	0.3791	0.0863	-0.0700
-27.7938	-11.5293	-52.5499	0.3108	0.0551	-0.0561
-28.6433	-11.4876	-52.4120	0.2465	0.0315	-0.0435
-28.8809	-11.3772	-52.3814	0.2341	0.0219	-0.0407
-24.3752	-11.3491	-53.1343	-1.3921	1.2513	0.1281
-24.3758	-11.3588	-53.1334	-1.3591	1.2570	0.1222
-24.4392	-11.4079	-53.1190	-1.1757	1.4693	0.0745
-24.4519	-11.4329	-53.1150	-1.0814	1.4896	0.0573
-24.5443	-11.4706	-53.0967	-0.8123	1.7109	-0.0052
-24.5647	-11.4646	-53.0938	-0.7796	1.7824	-0.0164
-24.5718	-11.4957	-53.0902	-0.6821	1.7214	-0.0276
-24.6808	-11.4250	-53.0780	-0.4624	2.2175	-0.1043
-24.7385	-11.4015	-53.0704	-0.1918	2.4258	-0.1659
-24.7455	-11.3979	-53.0696	-0.1530	2.4521	-0.1745
-24.7981	-11.4230	-53.0589	0.1466	2.3005	-0.2116
-24.9040	-11.5747	-53.0292	0.3700	1.6136	-0.1925
-24.9172	-11.5815	-53.0265	0.3935	1.5796	-0.1936
-24.9282	-11.5837	-53.0245	0.4160	1.5597	-0.1957
-24.9352	-11.5764	-53.0239	0.4419	1.5659	-0.2004
-24.9698	-11.5849	-53.0175	0.5030	1.4942	-0.2047
-24.9806	-11.5884	-53.0155	0.5186	1.4701	-0.2053
-25.0146	-11.5616	-53.0121	0.6261	1.4584	-0.2220
-25.0317	-11.5712	-53.0085	0.6369	1.4098	-0.2199
-25.0823	-11.5122	-53.0051	0.8315	1.3842	-0.2498
-25.1448	-11.5334	-52.9931	0.8456	1.2203	-0.2388
-25.2400	-11.5670	-52.9747	0.8318	1.0163	-0.2199
-25.2546	-11.5649	-52.9725	0.8397	0.9914	-0.2191
-25.2738	-11.5703	-52.9689	0.8353	0.9573	-0.2156
-25.3649	-11.5910	-52.9523	0.8126	0.8170	-0.2004
-25.3791	-11.5849	-52.9504	0.8204	0.7974	-0.2001
-25.3975	-11.5826	-52.9476	0.8222	0.7725	-0.1984
-25.4206	-11.5865	-52.9435	0.8147	0.7432	-0.1947
-25.4429	-11.5864	-52.9398	0.8116	0.7156	-0.1920
-25.4678	-11.5876	-52.9356	0.8057	0.6866	-0.1887
-25.4915	-11.5898	-52.9316	0.7985	0.6604	-0.1853
-25.5104	-11.5820	-52.9291	0.8024	0.6382	-0.1841
-25.4069	-11.4611	-52.9560	0.9888	0.7264	-0.2220
-25.4980	-11.4601	-52.9412	0.9432	0.6048	-0.2046
-25.9005	-11.5782	-52.8653	0.6756	0.3495	-0.1397
-27.7915	-11.5561	-52.5565	0.3103	0.0578	-0.0557
-28.8236	-11.4773	-52.3932	0.2362	0.0282	-0.0411
-28.8731	-11.4130	-52.3903	0.2343	0.0239	-0.0405
-24.3131	-11.3123	-53.1497	-1.4616	1.0140	0.1554
-24.3140	-11.3346	-53.1477	-1.3981	1.0398	0.1429
-24.3707	-11.3484	-53.1373	-1.3950	1.2324	0.1265
-24.3780	-11.3537	-53.1357	-1.3800	1.2600	0.1218
-24.3977	-11.3603	-53.1320	-1.3613	1.3328	0.1127
-24.4043	-11.3642	-53.1306	-1.3475	1.3573	0.1084
-24.4487	-11.4307	-53.1179	-1.0947	1.4798	0.0570
-24.4816	-11.4332	-53.1123	-1.0477	1.5859	0.0406
-24.5187	-11.4704	-53.1033	-0.8701	1.6386	0.0072
-24.5269	-11.4713	-53.1019	-0.8514	1.6601	0.0024
-24.5353	-11.4766	-53.1001	-0.8192	1.6723	-0.0039
-24.5391	-11.4863	-53.0986	-0.7852	1.6621	-0.0086
-24.5704	-11.4804	-53.0941	-0.7268	1.7565	-0.0259
-24.5737	-11.4957	-53.0923	-0.6809	1.7256	-0.0309
-24.6876	-11.4400	-53.0783	-0.4071	2.1618	-0.1115
-24.7406	-11.3993	-53.0731	-0.1869	2.4439	-0.1707
-24.7938	-11.4221	-53.0626	0.1200	2.3130	-0.2100
-24.8770	-11.5552	-53.0381	0.3198	1.7017	-0.1923
-24.8884	-11.5639	-53.0356	0.3413	1.6639	-0.1927
-24.8974	-11.5659	-53.0339	0.3627	1.6471	-0.1948
-24.9226	-11.5861	-53.0282	0.3991	1.5643	-0.1939
-24.9313	-11.5847	-53.0269	0.4209	1.5555	-0.1967
-24.9401	-11.5738	-53.0263	0.4558	1.5672	-0.2034
-24.9476	-11.5642	-53.0260	0.4872	1.5771	-0.2093
-24.9754	-11.5923	-53.0191	0.5023	1.4734	-0.2032
-24.9889	-11.5947	-53.0167	0.5240	1.4473	-0.2046
-24.9981	-11.5890	-53.0157	0.5495	1.4425	-0.2084
-25.0037	-11.5782	-53.0157	0.5774	1.4521	-0.2137
-25.0119	-11.5671	-53.0152	0.6112	1.4567	-0.2196
-25.0197	-11.5626	-53.0143	0.6331	1.4497	-0.2226
-25.0687	-11.5205	-53.0099	0.7958	1.4089	-0.2457
-25.0774	-11.5153	-53.0089	0.8190	1.3951	-0.2484
-25.0931	-11.5242	-53.0056	0.8176	1.3474	-0.2442
-25.1287	-11.5435	-52.9983	0.8124	1.2489	-0.2353
-25.1379	-11.5348	-52.9975	0.8382	1.2366	-0.2385
-25.1574	-11.5269	-52.9950	0.8696	1.2002	-0.2406
-25.2875	-11.5755	-52.9699	0.8307	0.9356	-0.2124
-25.3506	-11.5861	-52.9587	0.8205	0.8384	-0.2027
-25.3684	-11.5892	-52.9555	0.8163	0.8134	-0.2000
-25.3909	-11.5884	-52.9519	0.8163	0.7829	-0.1975
-25.4116	-11.5878	-52.9486	0.8152	0.7558	-0.1951
-25.4327	-11.5895	-52.9451	0.8107	0.7296	-0.1921
-25.4552	-11.5891	-52.9415	0.8076	0.7024	-0.1894
-25.4909	-11.5784	-52.9366	0.8122	0.6594	-0.1866
-25.4163	-11.4447	-52.9597	1.0098	0.7052	-0.2226
-25.5032	-11.4541	-52.9449	0.9489	0.5961	-0.2036
-27.5282	-11.5306	-52.6092	0.3391	0.0659	-0.0606
-28.6878	-11.5038	-52.4230	0.2439	0.0317	-0.0423
-28.7915	-11.4488	-52.4106	0.2387	0.0270	-0.0411
-28.9033	-11.3913	-52.3972	0.2331	0.0224	-0.0398
-28.9810	-11.3275	-52.3898	0.2296	0.0182	-0.0388
-24.3777	-11.3473	-53.1384	-1.4044	1.2540	0.1228
-24.4334	-11.4007	-53.1250	-1.2110	1.4496	0.0753
-24.4692	-11.4407	-53.1160	-1.0432	1.5337	0.0411
-24.4764	-11.4479	-53.1142	-1.0109	1.5471	0.0348
-24.5155	-11.4690	-53.1062	-0.8840	1.6311	0.0072
-24.5214	-11.4767	-53.1046	-0.8508	1.6333	0.0017
-24.5291	-11.4840	-53.1027	-0.8158	1.6398	-0.0045
-24.5378	-11.4838	-53.1013	-0.7982	1.6634	-0.0093
-24.5452	-11.4861	-53.1000	-0.7758	1.6777	-0.0141
-24.6791	-11.4298	-53.0831	-0.4707	2.1948	-0.1064
-24.7064	-11.4093	-53.0804	-0.3734	2.3476	-0.1348
-24.7201	-11.4261	-53.0769	-0.2761	2.2776	-0.1448
-24.7426	-11.3980	-53.0756	-0.1809	2.4563	-0.1750
-24.7529	-11.3946	-53.0742	-0.1206	2.4838	-0.1870
-24.7822	-11.4254	-53.0670	0.0530	2.3055	-0.2002
-24.7912	-11.4250	-53.0656	0.1010	2.3033	-0.2078
-24.8832	-11.5730	-53.0385	0.3163	1.6486	-0.1881
-24.8939	-11.5767	-53.0365	0.3399	1.6263	-0.1900
-24.9028	-11.5716	-53.0355	0.3685	1.6282	-0.1948
-24.9130	-11.5721	-53.0338	0.3935	1.6132	-0.1976
-24.9258	-11.5820	-53.0309	0.4111	1.5719	-0.1970
-24.9356	-11.5896	-53.0287	0.4233	1.5412	-0.1964
-24.9494	-11.5906	-53.0264	0.4518	1.5192	-0.1992
-25.0036	-11.5631	-53.0200	0.6036	1.4822	-0.2206
-25.0145	-11.5627	-53.0183	0.6240	1.4621	-0.2222
-25.0207	-11.5512	-53.0183	0.6566	1.4699	-0.2281
-25.0770	-11.5737	-53.0073	0.6973	1.3240	-0.2225
-25.0803	-11.5355	-53.0100	0.7784	1.3655	-0.2390
-25.1287	-11.5531	-53.0008	0.7938	1.2426	-0.2313
-25.1361	-11.5469	-53.0001	0.8127	1.2326	-0.2335
-25.1459	-11.5389	-52.9992	0.8371	1.2184	-0.2363
-25.1572	-11.5357	-52.9976	0.8521	1.1968	-0.2369
-25.2518	-11.5689	-52.9797	0.8344	0.9984	-0.2175
-25.3611	-11.5925	-52.9602	0.8130	0.8247	-0.1996
-25.3733	-11.5871	-52.9587	0.8201	0.8077	-0.1993
-25.3966	-11.5869	-52.9550	0.8190	0.7763	-0.1966
-25.4182	-11.5896	-52.9512	0.8135	0.7486	-0.1934
-25.4414	-11.5902	-52.9475	0.8097	0.7200	-0.1904
-25.4655	-11.5909	-52.9435	0.8048	0.6917	-0.1872
-25.4853	-11.5872	-52.9407	0.8051	0.6684	-0.1853
-25.5028	-11.5811	-52.9384	0.8076	0.6477	-0.1840
-25.4868	-11.5108	-52.9468	0.8918	0.6435	-0.1972
-25.4899	-11.4570	-52.9508	0.9545	0.6142	-0.2049
-25.5033	-11.4506	-52.9493	0.9546	0.5946	-0.2032
-26.5562	-11.5483	-52.7718	0.4957	0.1537	-0.0926
-26.6121	-11.4986	-52.7670	0.4903	0.1341	-0.0901
-27.2070	-11.5366	-52.6680	0.3797	0.0844	-0.0682
-27.8042	-11.5178	-52.5736	0.3110	0.0536	-0.0545
-28.6600	-11.4740	-52.4396	0.2463	0.0303	-0.0422
-28.7328	-11.4160	-52.4327	0.2428	0.0258	-0.0412
-29.0187	-11.3027	-52.3961	0.2280	0.0165	-0.0381
-33.6009	-10.6193	-51.7159	0.1103	-0.0047	-0.0174
-24.2777	-11.3010	-53.1607	-1.4516	0.8945	0.1573
-24.3100	-11.3039	-53.1553	-1.4863	0.9893	0.1549
-24.3620	-11.3335	-53.1446	-1.4459	1.1882	0.1318
-24.3759	-11.3546	-53.1406	-1.3815	1.2485	0.1164
-24.3921	-11.3649	-53.1371	-1.3501	1.3087	0.1064
-24.4193	-11.4115	-53.1290	-1.1858	1.3939	0.0730
-24.4313	-11.4253	-53.1259	-1.1332	1.4247	0.0620
-24.4831	-11.4033	-53.1195	-1.1588	1.6294	0.0489
-24.4878	-11.4091	-53.1183	-1.1308	1.6394	0.0436
-24.4928	-11.4185	-53.1167	-1.0892	1.6440	0.0366
-24.5151	-11.4784	-53.1082	-0.8613	1.6125	0.0027
-24.5339	-11.4836	-53.1047	-0.8103	1.6538	-0.0089
-24.5391	-11.4883	-53.1035	-0.7870	1.6574	-0.0129
-24.5472	-11.4920	-53.1019	-0.7597	1.6701	-0.0183
-24.5572	-11.4943	-53.1001	-0.7312	1.6901	-0.0245
-24.6647	-11.3642	-53.0939	-0.7337	2.4970	-0.0917
-24.6722	-11.4167	-53.0884	-0.5369	2.2439	-0.1020
-24.6791	-11.4274	-53.0864	-0.4800	2.2083	-0.1081
-24.7467	-11.4051	-53.0775	-0.1551	2.4216	-0.1778
-24.7538	-11.3974	-53.0770	-0.1175	2.4715	-0.1880
-24.7596	-11.3966	-53.0762	-0.0823	2.4786	-0.1942
-24.7861	-11.4301	-53.0692	0.0696	2.2836	-0.2021
-24.7924	-11.4328	-53.0680	0.1014	2.2663	-0.2058
-24.8774	-11.5690	-53.0431	0.3043	1.6686	-0.1882
-24.9097	-11.5801	-53.0370	0.3750	1.6009	-0.1938
-24.9183	-11.5789	-53.0358	0.3972	1.5924	-0.1966
-24.9302	-11.5849	-53.0334	0.4173	1.5619	-0.1973
-24.9421	-11.5897	-53.0311	0.4373	1.5344	-0.1982
-24.9543	-11.5900	-53.0291	0.4629	1.5157	-0.2007
-24.9638	-11.5858	-53.0279	0.4887	1.5098	-0.2043
-24.9739	-11.5875	-53.0262	0.5063	1.4903	-0.2055
-24.9863	-11.5957	-53.0235	0.5177	1.4548	-0.2043
-24.9980	-11.5965	-53.0216	0.5376	1.4344	-0.2058
-25.0270	-11.5504	-53.0209	0.6697	1.4610	-0.2291
-25.0832	-11.5281	-53.0139	0.7995	1.3706	-0.2422
-25.0986	-11.5337	-53.0109	0.8053	1.3290	-0.2396
-25.2839	-11.5750	-52.9780	0.8334	0.9443	-0.2119
-25.2994	-11.5728	-52.9757	0.8393	0.9194	-0.2108
-25.3482	-11.5903	-52.9666	0.8172	0.8441	-0.2009
-25.3670	-11.5868	-52.9639	0.8222	0.8175	-0.1995
-25.3848	-11.5896	-52.9608	0.8177	0.7931	-0.1967
-25.4082	-11.5891	-52.9571	0.8166	0.7622	-0.1940
-25.4304	-11.5895	-52.9536	0.8135	0.7342	-0.1911
-25.4508	-11.5901	-52.9502	0.8097	0.7094	-0.1884
-25.5041	-11.5970	-52.9413	0.7918	0.6506	-0.1806
-25.5146	-11.5823	-52.9408	0.8048	0.6360	-0.1815
-25.4729	-11.5118	-52.9534	0.8977	0.6613	-0.1984
-25.4806	-11.4993	-52.9532	0.9097	0.6468	-0.1991
-25.4912	-11.4516	-52.9556	0.9621	0.6101	-0.2043
-26.4448	-11.5630	-52.7945	0.5200	0.1763	-0.0976
-27.8020	-11.4994	-52.5840	0.3122	0.0519	-0.0540
-28.7402	-11.4595	-52.4380	0.2419	0.0282	-0.0409
-28.9654	-11.3433	-52.4119	0.2306	0.0191	-0.0383
-29.0995	-11.2815	-52.3960	0.2241	0.0148	-0.0369
-30.9183	-11.2075	-52.1127	0.1584	0.0054	-0.0257
-33.4815	-10.7107	-51.7464	0.1120	-0.0037	-0.0175
-33.5713	-10.5595	-51.7448	0.1107	-0.0055	-0.0172
-24.3086	-11.2999	-53.1583	-1.4980	0.9774	0.1546
-24.4547	-11.4175	-53.1254	-1.1431	1.5091	0.0537
-24.4637	-11.4217	-53.1237	-1.1193	1.5360	0.0476
-24.4912	-11.4119	-53.1202	-1.1196	1.6472	0.0383
-24.5120	-11.4590	-53.1130	-0.9269	1.6393	0.0085
-24.5158	-11.4680	-53.1117	-0.8933	1.6339	0.0036
-24.5292	-11.4807	-53.1085	-0.8313	1.6471	-0.0073
-24.5357	-11.4850	-53.1071	-0.8061	1.6558	-0.0120
-24.5459	-11.4898	-53.1051	-0.7715	1.6721	-0.0188
-24.5515	-11.4935	-53.1039	-0.7497	1.6783	-0.0228
-24.5642	-11.5097	-53.1005	-0.6814	1.6712	-0.0330
-24.6425	-11.3883	-53.0984	-0.7675	2.2953	-0.0720
-24.7090	-11.4020	-53.0868	-0.3814	2.3988	-0.1417
-24.7157	-11.4090	-53.0852	-0.3317	2.3705	-0.1471
-24.7216	-11.4108	-53.0841	-0.2967	2.3690	-0.1526
-24.7283	-11.4125	-53.0829	-0.2570	2.3674	-0.1587
-24.7383	-11.4083	-53.0817	-0.2047	2.4008	-0.1698
-24.7772	-11.4073	-53.0757	0.0223	2.4182	-0.2071
-24.8050	-11.4437	-53.0683	0.1560	2.2067	-0.2104
-24.8534	-11.5560	-53.0512	0.2479	1.7332	-0.1850
-24.8609	-11.5598	-53.0497	0.2665	1.7146	-0.1864
-24.8715	-11.5660	-53.0475	0.2907	1.6860	-0.1878
-24.8834	-11.5708	-53.0453	0.3181	1.6598	-0.1899
-24.8924	-11.5729	-53.0437	0.3395	1.6436	-0.1919
-24.9019	-11.5707	-53.0424	0.3665	1.6373	-0.1957
-24.9117	-11.5754	-53.0404	0.3853	1.6124	-0.1966
-24.9241	-11.5845	-53.0378	0.4036	1.5739	-0.1962
-24.9361	-11.5852	-53.0358	0.4302	1.5554	-0.1988
-24.9475	-11.5880	-53.0338	0.4514	1.5327	-0.2003
-24.9564	-11.5914	-53.0321	0.4654	1.5122	-0.2008
-24.9687	-11.5915	-53.0301	0.4903	1.4933	-0.2031
-24.9798	-11.5960	-53.0280	0.5053	1.4671	-0.2032
-24.9913	-11.5970	-53.0261	0.5253	1.4468	-0.2047
-25.0041	-11.5684	-53.0266	0.5962	1.4770	-0.2184
-25.0753	-11.5271	-53.0189	0.7927	1.3927	-0.2423
-25.0896	-11.5312	-53.0163	0.8016	1.3547	-0.2405
-25.1125	-11.5308	-53.0127	0.8276	1.3033	-0.2403
-25.2563	-11.5745	-52.9864	0.8293	0.9920	-0.2143
-25.2711	-11.5747	-52.9841	0.8328	0.9669	-0.2127
-25.3230	-11.5955	-52.9742	0.8093	0.8816	-0.2018
-25.3424	-11.5961	-52.9711	0.8101	0.8531	-0.1996
-25.3593	-11.5933	-52.9687	0.8146	0.8293	-0.1983
-25.3748	-11.5888	-52.9666	0.8206	0.8077	-0.1974
-25.3961	-11.5893	-52.9632	0.8188	0.7790	-0.1947
-25.4162	-11.5907	-52.9599	0.8151	0.7529	-0.1919
-25.4393	-11.5915	-52.9562	0.8112	0.7243	-0.1889
-25.4649	-11.5936	-52.9520	0.8046	0.6943	-0.1853
-25.4847	-11.5899	-52.9493	0.8049	0.6710	-0.1834
-25.5009	-11.5855	-52.9471	0.8060	0.6521	-0.1820
-25.5221	-11.5793	-52.9443	0.8073	0.6279	-0.1801
-25.4831	-11.5112	-52.9562	0.8959	0.6492	-0.1959
-25.4901	-11.4980	-52.9562	0.9087	0.6353	-0.1967
-25.4929	-11.4452	-52.9603	0.9705	0.6046	-0.2038
-26.2120	-11.5790	-52.8359	0.5791	0.2343	-0.1110
-26.4558	-11.5215	-52.8024	0.5256	0.1639	-0.0966
-27.8130	-11.5304	-52.5882	0.3102	0.0544	-0.0534
-28.6715	-11.4883	-52.4566	0.2457	0.0310	-0.0413
-28.9437	-11.3806	-52.4228	0.2315	0.0213	-0.0382
-29.0389	-11.3174	-52.4131	0.2271	0.0171	-0.0372
-24.2694	-11.3068	-53.1661	-1.4299	0.8758	0.1497
-24.3761	-11.3572	-53.1452	-1.3794	1.2461	0.1104
-24.3812	-11.3989	-53.1409	-1.2434	1.2698	0.0872
-24.4766	-11.4281	-53.1236	-1.0870	1.5726	0.0370
-24.5080	-11.4260	-53.1188	-1.0468	1.6854	0.0212
-24.5126	-11.4323	-53.1176	-1.0167	1.6901	0.0161
-24.5187	-11.4406	-53.1159	-0.9775	1.6953	0.0095
-24.5256	-11.4774	-53.1118	-0.8519	1.6443	-0.0059
-24.5326	-11.4832	-53.1102	-0.8216	1.6520	-0.0113
-24.5402	-11.4880	-53.1086	-0.7927	1.6622	-0.0166
-24.5475	-11.4936	-53.1070	-0.7623	1.6689	-0.0220
-24.5551	-11.4959	-53.1056	-0.7396	1.6827	-0.0267
-24.6688	-11.4093	-53.0952	-0.5823	2.2775	-0.1016
-24.6724	-11.4205	-53.0937	-0.5368	2.2328	-0.1050
-24.6761	-11.4326	-53.0922	-0.4921	2.1848	-0.1079
-24.7686	-11.3887	-53.0815	-0.0354	2.5422	-0.2095
-24.8570	-11.5537	-53.0538	0.2598	1.7406	-0.1879
-24.8663	-11.5531	-53.0524	0.2879	1.7326	-0.1916
-24.8877	-11.5722	-53.0474	0.3276	1.6549	-0.1912
-24.8982	-11.5749	-53.0456	0.3519	1.6349	-0.1933
-24.9089	-11.5723	-53.0441	0.3824	1.6276	-0.1974
-24.9186	-11.5760	-53.0423	0.4015	1.6053	-0.1986
-24.9304	-11.5820	-53.0400	0.4215	1.5745	-0.1991
-24.9419	-11.5859	-53.0379	0.4423	1.5491	-0.2002
-24.9510	-11.5904	-53.0361	0.4559	1.5259	-0.2003
-24.9843	-11.5925	-53.0307	0.5199	1.4696	-0.2056
-24.9946	-11.5577	-53.0321	0.5985	1.5187	-0.2220
-25.0083	-11.5648	-53.0293	0.6114	1.4790	-0.2206
-25.0228	-11.5725	-53.0264	0.6227	1.4380	-0.2189
-25.0355	-11.5754	-53.0242	0.6384	1.4092	-0.2189
-25.0450	-11.5708	-53.0231	0.6615	1.3981	-0.2216
-25.1230	-11.5385	-53.0137	0.8233	1.2751	-0.2365
-25.1476	-11.5360	-53.0101	0.8497	1.2236	-0.2362
-25.2714	-11.5841	-52.9868	0.8195	0.9656	-0.2096
-25.2896	-11.5878	-52.9836	0.8177	0.9353	-0.2068
-25.3387	-11.6043	-52.9746	0.8002	0.8590	-0.1976
-25.3563	-11.6024	-52.9720	0.8039	0.8343	-0.1961
-25.3650	-11.5910	-52.9716	0.8197	0.8224	-0.1975
-25.3799	-11.5884	-52.9695	0.8229	0.8016	-0.1963
-25.4012	-11.5888	-52.9662	0.8210	0.7731	-0.1936
-25.4256	-11.5913	-52.9622	0.8152	0.7420	-0.1900
-25.4488	-11.5918	-52.9585	0.8112	0.7137	-0.1870
-25.5059	-11.5816	-52.9505	0.8108	0.6464	-0.1812
-25.5263	-11.5547	-52.9496	0.8335	0.6166	-0.1822
-25.4865	-11.4865	-52.9616	0.9262	0.6348	-0.1983
-25.4767	-11.4478	-52.9665	0.9793	0.6266	-0.2058
-25.4952	-11.4404	-52.9642	0.9772	0.5992	-0.2032
-25.9937	-11.6020	-52.8728	0.6385	0.3161	-0.1264
-26.0117	-11.5852	-52.8715	0.6396	0.3033	-0.1254
-26.1815	-11.5841	-52.8451	0.5873	0.2445	-0.1123
-26.4906	-11.5527	-52.7996	0.5120	0.1654	-0.0938
-27.0976	-11.5079	-52.7088	0.3990	0.0875	-0.0696
-28.6702	-11.4658	-52.4673	0.2463	0.0296	-0.0409
-28.9772	-11.3602	-52.4284	0.2301	0.0198	-0.0375
-29.0554	-11.2948	-52.4219	0.2266	0.0157	-0.0366
-24.3350	-11.3489	-53.1543	-1.3868	1.1031	0.1213
-24.4126	-11.4128	-53.1369	-1.1966	1.3672	0.0694
-24.4430	-11.4303	-53.1308	-1.1206	1.4563	0.0500
-24.4692	-11.4262	-53.1270	-1.1080	1.5488	0.0402
-24.5146	-11.4240	-53.1202	-1.0483	1.7126	0.0170
-24.5147	-11.4334	-53.1194	-1.0152	1.6956	0.0133
-24.5222	-11.4413	-53.1176	-0.9743	1.7060	0.0061
-24.5275	-11.4489	-53.1161	-0.9390	1.7083	0.0004
-24.5294	-11.4770	-53.1134	-0.8504	1.6567	-0.0089
-24.5363	-11.4828	-53.1119	-0.8202	1.6641	-0.0142
-24.5429	-11.4893	-53.1103	-0.7886	1.6679	-0.0195
-24.6394	-11.3841	-53.1043	-0.8124	2.3114	-0.0705
-24.6612	-11.3993	-53.0997	-0.6552	2.3109	-0.0948
-24.6738	-11.4282	-53.0953	-0.5185	2.2049	-0.1070
-24.7699	-11.4209	-53.0811	-0.0265	2.3558	-0.1960
-24.8796	-11.5663	-53.0519	0.3118	1.6849	-0.1914
-24.8905	-11.5721	-53.0497	0.3349	1.6562	-0.1925
-24.9010	-11.5748	-53.0479	0.3591	1.6361	-0.1946
-24.9107	-11.5734	-53.0465	0.3856	1.6268	-0.1979
-24.9204	-11.5719	-53.0451	0.4117	1.6170	-0.2011
-24.9309	-11.5783	-53.0429	0.4283	1.5866	-0.2011
-24.9437	-11.5869	-53.0402	0.4456	1.5481	-0.2005
-24.9568	-11.5901	-53.0380	0.4691	1.5217	-0.2019
-24.9788	-11.5909	-53.0345	0.5126	1.4855	-0.2055
-24.9871	-11.5581	-53.0360	0.5842	1.5363	-0.2209
-25.0347	-11.5665	-53.0280	0.6552	1.4285	-0.2227
-25.0454	-11.5679	-53.0262	0.6693	1.4052	-0.2229
-25.0658	-11.5337	-53.0260	0.7696	1.4122	-0.2391
-25.0736	-11.5269	-53.0253	0.7955	1.4034	-0.2423
-25.1604	-11.5494	-53.0101	0.8342	1.1891	-0.2301
-25.1660	-11.5379	-53.0102	0.8614	1.1851	-0.2340
-25.1910	-11.5361	-53.0064	0.8796	1.1336	-0.2324
-25.2163	-11.5307	-53.0030	0.9012	1.0840	-0.2315
-25.3300	-11.5902	-52.9804	0.8218	0.8741	-0.2014
-25.3487	-11.5899	-52.9776	0.8233	0.8466	-0.1993
-25.3690	-11.5905	-52.9744	0.8225	0.8178	-0.1967
-25.3873	-11.5885	-52.9717	0.8245	0.7925	-0.1949
-25.4081	-11.5907	-52.9683	0.8198	0.7651	-0.1918
-25.4346	-11.5923	-52.9641	0.8147	0.7318	-0.1882
-25.4556	-11.5907	-52.9610	0.8133	0.7060	-0.1858
-25.5090	-11.5974	-52.9522	0.7951	0.6473	-0.1780
-25.4744	-11.4575	-52.9695	0.9706	0.6353	-0.2041
-25.4878	-11.4493	-52.9681	0.9732	0.6136	-0.2026
-25.4970	-11.4381	-52.9677	0.9811	0.5957	-0.2023
-26.2279	-11.5679	-52.8437	0.5792	0.2265	-0.1088
-28.7693	-11.4590	-52.4605	0.2407	0.0277	-0.0395
-28.9837	-11.3408	-52.4375	0.2301	0.0186	-0.0371
-33.5027	-10.5539	-51.8065	0.1118	-0.0057	-0.0168
-24.2295	-11.3859	-53.1692	-1.2156	0.8585	0.1137
-24.3803	-11.3498	-53.1492	-1.4162	1.2526	0.1108
-24.3964	-11.3689	-53.1451	-1.3535	1.3162	0.0958
-24.4562	-11.4212	-53.1315	-1.1442	1.5085	0.0472
-24.4625	-11.4272	-53.1300	-1.1172	1.5243	0.0417
-24.5317	-11.4499	-53.1175	-0.9324	1.7206	-0.0035
-24.5364	-11.4569	-53.1162	-0.9005	1.7203	-0.0084
-24.5389	-11.4706	-53.1147	-0.8539	1.6985	-0.0137
-24.5404	-11.4847	-53.1132	-0.8111	1.6724	-0.0180
-24.5440	-11.4952	-53.1118	-0.7754	1.6591	-0.0224
-24.5518	-11.4999	-53.1102	-0.7467	1.6685	-0.0276
-24.5647	-11.4957	-53.1086	-0.7274	1.7101	-0.0341
-24.6674	-11.4062	-53.1005	-0.6111	2.2989	-0.1022
-24.8718	-11.5651	-53.0557	0.2911	1.7010	-0.1897
-24.8941	-11.5727	-53.0517	0.3436	1.6543	-0.1938
-24.9049	-11.5825	-53.0492	0.3600	1.6158	-0.1930
-24.9150	-11.5882	-53.0472	0.3781	1.5890	-0.1935
-24.9262	-11.5914	-53.0452	0.4004	1.5666	-0.1950
-24.9474	-11.5915	-53.0420	0.4477	1.5366	-0.1997
-24.9571	-11.5884	-53.0407	0.4730	1.5286	-0.2029
-24.9791	-11.5892	-53.0373	0.5167	1.4920	-0.2065
-24.9886	-11.5526	-53.0390	0.5987	1.5483	-0.2239
-25.0275	-11.5704	-53.0315	0.6375	1.4396	-0.2205
-25.0348	-11.5582	-53.0314	0.6730	1.4453	-0.2265
-25.0442	-11.5602	-53.0299	0.6840	1.4229	-0.2262
